0.00,0.00,0.00,0.00,0.00,0.00,0.00,0.00,0.00,0.00,0.00,0.00,0.00,0.00,0.00,0.00,0.00,0.00,0.00,0.00,0.00,0.00,0.00,0.00,0.00,0.00,0.00,0.00,0.00,0.00,0.00,0.00,0.00,0.00,0.00,0.00,0.00,0.00,0.00,0.00,0.00,0.00,0.00,0.00,0.00,0.00,0.00,0.00,0.00,0.00,0.00,0.00,0.00,0.00,0.00,0.00,0.00,0.00,0.00,0.00,0.00,0.00,0.00,0.00,0.00,0.00,0.00,0.00,0.00,0.00,0.00,0.00,0.00,0.00,1614.31,1624.22,1630.68,1635.90,1638.81,1640.48,1640.44,1640.76,1641.55,1642.24,1641.65,1641.93,1642.40,1642.60,1643.45,1643.87,1643.84,1641.73,1642.43,1643.99,1646.23,1647.40,1648.43,1649.08,1648.10,1647.42,1646.25,1646.83,1649.47,1650.90,1649.98,1648.99,1648.94,1650.51,1651.92,1652.00,1652.03,1651.78,1652.21,1652.96,1652.78,1654.14,1653.04,1654.04,1655.52,1657.00,1656.11,1654.99,1656.32,1657.35,1658.39,1658.96,1659.66,1658.61,1658.33,1658.34,1659.25,1659.47,1660.42,1660.15,1660.00,1659.75,1660.67,1661.55,1662.78,1663.16,1663.89,1663.44,1663.04,1662.31,1663.43,1664.56,1665.22,1665.71,1667.15,1667.88,1667.02,1666.29,1665.90,1666.79,1668.74,1669.74,1669.70,1669.40,1669.66,1669.93,1670.08,1671.12,1672.20,1672.27,1671.83,1671.95,1672.66,1673.78,1674.34,1674.65,1675.79,1676.36,1677.23,1677.48,1677.93,1677.29,1676.64,1676.37,1677.85,1679.03,1679.21,1679.80,1681.13,1682.90,1683.48,1682.50,1681.50,1681.66,1683.59,1685.66,1684.49,1684.23,1684.73,1684.33,1682.55,1682.39,1683.59,1684.40,1684.94,1685.79,1686.49,1685.85,1686.77,1687.50,1689.53,1690.38,1690.65,1689.59,1689.94,1690.60,1691.47,1692.04,1692.02,1692.71,1693.23,1693.72,1693.66,1694.05,1694.63,1694.38,1694.25,1694.99,1695.94,1695.75,1696.03,1696.22,1696.70,1696.97,1697.06,1697.40,1698.11,1699.02,1700.83,1700.72,1701.15,1701.38,1701.63,1702.27,1701.93,1702.84,1702.88,1703.41,1702.91,1702.89,1702.75,1704.70,1704.90,1705.26,1703.73,1704.72,1707.38,1709.88,1711.07,1710.36,1714.19,1718.32,0.00,0.00,0.00,0.00,0.00,0.00,0.00,0.00,660.89,657.44,649.13,654.25,676.57,693.64,699.72,700.58,698.15,696.69,693.83,692.47,690.99,678.21,661.54,650.76,644.06,640.82,638.72,639.19,637.82,637.90,639.21,641.25,643.17,643.92,644.81,644.54,642.91,643.75,645.97,650.43,652.55,652.69,653.12,653.27,653.99,654.23,653.52,654.57,654.21,654.85,653.27,654.08,654.15,655.96,655.19,654.80,654.46,655.16,655.11,654.37,654.84,656.44,658.69,659.24,659.54,659.35,660.93,663.05,663.41,662.07,660.85,661.29,663.71,665.92,668.13,670.22,672.71,675.08,676.47,676.29,677.58,677.82,680.24,682.11,690.81,697.21,701.23,702.04,702.49,701.57,703.32,702.85,702.93,701.26,703.73,707.14,709.20,709.49,709.17,708.36,705.12,695.64,680.26,671.94,659.76,0.00,0.00,0.00,0.00,0.00,0.00,0.00,0.00,0.00,0.00,0.00,0.00,0.00,0.00,0.00,0.00,0.00,0.00,0.00,0.00,0.00,0.00,0.00,0.00,0.00,0.00,0.00,0.00,0.00,0.00,0.00,0.00,0.00,0.00,0.00,0.00,0.00,0.00,0.00,0.00,0.00,0.00,0.00,0.00,0.00,0.00,0.00,0.00,0.00,0.00,0.00,0.00,0.00,0.00,0.00,0.00,0.00,0.00,0.00,0.00,0.00,0.00,0.00,0.00,0.00,0.00,0.00,0.00,0.00,0.00,0.00,0.00,0.00,0.00,0.00,0.00,0.00,0.00,0.00,0.00,0.00,0.00,0.00,0.00,0.00,0.00,0.00,0.00,0.00,0.00,0.00,0.00,0.00,0.00,0.00,0.00,0.00,0.00,0.00,0.00,0.00,0.00,0.00,0.00,0.00,0.00,0.00,0.00,0.00,0.00,0.00,0.00,0.00,0.00,0.00,0.00,0.00,0.00,0.00,0.00,0.00,0.00,0.00,0.00,0.00,0.00,0.00,0.00,0.00,0.00,0.00,0.00,0.00,0.00
0.00,0.00,0.00,0.00,0.00,0.00,0.00,0.00,0.00,0.00,0.00,0.00,0.00,0.00,0.00,0.00,0.00,0.00,0.00,0.00,0.00,0.00,0.00,0.00,0.00,0.00,0.00,0.00,0.00,0.00,0.00,0.00,0.00,0.00,0.00,0.00,0.00,0.00,0.00,0.00,0.00,0.00,0.00,0.00,0.00,0.00,0.00,0.00,0.00,0.00,0.00,0.00,0.00,0.00,0.00,0.00,0.00,0.00,0.00,0.00,0.00,0.00,0.00,0.00,0.00,0.00,0.00,0.00,0.00,0.00,0.00,0.00,0.00,0.00,0.00,0.00,1620.65,1629.72,1635.97,1640.34,1642.02,1642.21,1641.70,1641.02,1640.30,1640.10,1641.02,1642.23,1643.97,1644.54,1645.88,1644.87,1645.96,1646.28,1647.40,1647.49,1648.94,1650.58,1650.51,1648.88,1647.35,1648.05,1650.58,1650.99,1650.03,1648.95,1649.67,1651.84,1653.81,1653.67,1653.44,1652.44,1653.33,1652.76,1653.47,1654.30,1654.39,1654.81,1656.28,1657.44,1657.76,1656.43,1656.51,1656.38,1657.36,1658.83,1659.30,1658.48,1657.86,1657.81,1659.29,1660.67,1662.39,1663.15,1663.05,1662.60,1663.72,1664.47,1667.09,1666.67,1667.41,1665.70,1665.69,1665.24,1666.32,1665.90,1666.52,1666.13,1667.55,1668.68,1670.30,1670.99,1670.03,1669.61,1671.11,1671.73,1671.61,1670.96,1670.25,1669.83,1670.34,1672.26,1673.37,1672.77,1672.04,1672.33,1673.56,1674.97,1675.78,1676.56,1677.02,1676.94,1676.86,1677.71,1680.30,1680.02,1679.89,1677.99,1679.25,1680.60,1680.61,1682.22,1682.74,1685.57,1685.36,1684.44,1682.59,1682.76,1685.01,1687.40,1686.57,1686.75,1686.27,1685.63,1683.39,1683.47,1685.01,1685.67,1686.52,1687.03,1688.60,1687.61,1688.17,1688.03,1690.51,1691.21,1691.51,1689.72,1689.83,1691.22,1692.41,1693.72,1692.71,1692.63,1692.77,1694.39,1696.19,1697.39,1697.50,1696.00,1693.85,1694.94,1695.69,1697.23,1696.58,1697.20,1697.88,1698.37,1698.71,1698.98,1700.47,1701.30,1702.83,1702.98,1702.90,1702.83,1702.12,1703.30,1702.80,1703.77,1703.56,1704.09,1704.72,1704.94,1704.45,1704.61,1705.32,1706.86,1706.81,1706.70,1706.56,1707.06,1706.95,1708.17,1710.40,1715.01,1714.53,1718.13,0.00,0.00,0.00,0.00,0.00,0.00,0.00,0.00,0.00,0.00,687.50,695.63,697.56,695.91,693.86,692.58,691.35,690.43,689.81,676.55,664.49,654.44,647.57,642.66,640.71,641.54,639.88,640.18,640.26,643.13,645.19,646.65,647.02,645.19,643.54,642.57,644.73,647.14,651.15,651.42,654.00,652.02,652.59,651.92,651.67,651.61,651.87,652.72,652.73,653.38,654.20,655.16,653.89,652.94,653.18,653.51,653.80,651.99,653.55,654.36,657.42,657.43,658.71,658.76,659.33,660.89,661.73,661.44,660.73,661.68,664.00,664.77,666.41,668.04,670.57,672.07,674.61,674.65,675.36,675.45,678.49,681.42,689.55,695.71,699.17,700.09,700.01,700.48,702.55,703.50,703.58,702.74,704.24,705.93,707.59,709.68,709.85,708.60,702.21,690.54,669.94,659.13,641.34,549.52,0.00,0.00,0.00,0.00,0.00,0.00,0.00,0.00,0.00,0.00,0.00,0.00,0.00,0.00,0.00,0.00,0.00,0.00,0.00,0.00,0.00,0.00,0.00,0.00,0.00,0.00,0.00,0.00,0.00,0.00,0.00,0.00,0.00,0.00,0.00,0.00,0.00,0.00,0.00,0.00,0.00,0.00,0.00,0.00,0.00,0.00,0.00,0.00,0.00,0.00,0.00,0.00,0.00,0.00,0.00,0.00,0.00,0.00,0.00,0.00,0.00,0.00,0.00,0.00,0.00,0.00,0.00,0.00,0.00,0.00,0.00,0.00,0.00,0.00,0.00,0.00,0.00,0.00,0.00,0.00,0.00,0.00,0.00,0.00,0.00,0.00,0.00,0.00,0.00,0.00,0.00,0.00,0.00,0.00,0.00,0.00,0.00,0.00,0.00,0.00,0.00,0.00,0.00,0.00,0.00,0.00,0.00,0.00,0.00,0.00,0.00,0.00,0.00,0.00,0.00,0.00,0.00,0.00,0.00,0.00,0.00,0.00,0.00,0.00,0.00,0.00,0.00,0.00,0.00,0.00,0.00,0.00,0.00
0.00,0.00,0.00,0.00,0.00,0.00,0.00,0.00,0.00,0.00,0.00,0.00,0.00,0.00,0.00,0.00,0.00,0.00,0.00,0.00,0.00,0.00,0.00,1547.09,0.00,0.00,0.00,0.00,0.00,0.00,0.00,0.00,0.00,0.00,0.00,0.00,0.00,0.00,0.00,0.00,0.00,0.00,0.00,0.00,0.00,0.00,0.00,0.00,0.00,0.00,0.00,0.00,0.00,0.00,0.00,0.00,0.00,0.00,0.00,0.00,0.00,0.00,0.00,0.00,0.00,0.00,0.00,0.00,0.00,0.00,0.00,0.00,0.00,0.00,0.00,0.00,0.00,1612.29,1626.38,1636.31,1641.92,1644.98,1644.31,1644.15,1643.44,1643.20,1644.23,1646.10,1647.28,1647.88,1649.70,1650.02,1649.86,1649.44,1649.72,1649.93,1650.66,1652.56,1653.43,1652.23,1651.85,1652.27,1653.85,1653.34,1653.68,1654.39,1655.81,1657.63,1658.16,1657.62,1656.83,1656.88,1658.19,1658.42,1658.31,1658.74,1657.82,1659.42,1660.29,1661.56,1661.69,1660.98,1661.85,1662.18,1663.41,1664.30,1663.92,1663.70,1662.71,1663.58,1664.16,1665.68,1666.28,1667.57,1666.96,1666.44,1666.47,1667.45,1669.37,1668.74,1668.81,1667.94,1667.80,1669.02,1669.63,1670.61,1671.11,1671.45,1671.89,1672.30,1674.67,1675.51,1674.91,1673.30,1674.08,1674.32,1674.52,1674.68,1674.98,1675.24,1675.77,1676.49,1677.18,1677.17,1676.61,1676.93,1677.97,1679.01,1678.63,1679.55,1680.55,1681.06,1679.99,1679.96,1682.07,1683.32,1684.46,1684.13,1683.96,1684.74,1684.19,1686.39,1686.47,1688.60,1688.34,1688.35,1687.54,1687.55,1688.94,1690.92,1690.45,1690.53,1689.87,1690.19,1689.32,1688.91,1690.10,1690.42,1691.76,1691.02,1692.27,1691.25,1692.18,1692.13,1694.78,1695.72,1695.91,1694.00,1694.26,1695.24,1696.54,1697.59,1696.95,1696.18,1696.02,1697.57,1699.75,1700.20,1700.33,1699.20,1697.86,1698.90,1700.61,1702.16,1702.86,1701.82,1702.54,1701.15,1702.84,1703.56,1705.54,1705.52,1706.14,1706.38,1706.78,1707.05,1706.81,1706.97,1706.14,1706.13,1707.81,1708.88,1711.04,1709.63,1708.50,1706.78,1709.01,1712.43,1714.05,1712.56,1710.43,1709.70,1709.98,1710.94,1713.92,1717.67,1719.83,1722.37,0.00,0.00,0.00,0.00,0.00,0.00,0.00,0.00,0.00,0.00,695.84,700.93,700.81,697.72,695.29,693.49,693.03,692.04,691.15,682.10,675.84,667.95,660.97,653.27,650.61,650.75,648.36,648.29,648.17,651.69,652.99,653.10,653.11,652.00,650.25,648.66,648.36,649.57,652.99,654.78,657.68,654.70,654.28,653.62,654.07,654.14,654.33,654.94,655.10,656.34,657.31,657.32,655.83,654.74,655.56,654.87,655.45,653.63,655.52,656.55,659.80,659.84,660.20,660.84,661.68,663.40,663.10,663.55,663.22,664.55,666.17,666.43,667.77,670.22,673.45,676.33,677.66,678.22,677.81,678.59,681.29,685.06,693.31,699.29,701.61,702.81,703.45,705.12,706.04,707.54,707.89,709.15,709.52,710.12,711.60,713.86,713.41,710.30,700.20,682.96,657.58,639.71,606.14,0.00,0.00,0.00,0.00,0.00,0.00,0.00,0.00,0.00,0.00,0.00,0.00,0.00,0.00,0.00,0.00,0.00,0.00,0.00,0.00,0.00,0.00,0.00,0.00,0.00,0.00,0.00,0.00,0.00,0.00,0.00,0.00,0.00,0.00,0.00,0.00,0.00,0.00,0.00,0.00,0.00,0.00,0.00,0.00,0.00,0.00,0.00,0.00,0.00,0.00,0.00,0.00,0.00,0.00,0.00,0.00,0.00,0.00,0.00,0.00,0.00,0.00,0.00,0.00,0.00,0.00,0.00,0.00,0.00,0.00,0.00,0.00,0.00,0.00,0.00,0.00,0.00,0.00,0.00,0.00,0.00,0.00,0.00,0.00,0.00,0.00,0.00,0.00,0.00,0.00,0.00,0.00,0.00,0.00,0.00,0.00,0.00,0.00,0.00,0.00,0.00,0.00,0.00,0.00,0.00,0.00,0.00,0.00,0.00,0.00,0.00,0.00,0.00,0.00,0.00,0.00,0.00,0.00,0.00,0.00,0.00,0.00,0.00,0.00,0.00,0.00,0.00,0.00,0.00,0.00,0.00,0.00,0.00,0.00
0.00,0.00,0.00,0.00,0.00,0.00,0.00,0.00,0.00,0.00,0.00,0.00,0.00,0.00,0.00,0.00,0.00,0.00,0.00,0.00,0.00,0.00,1546.70,1572.23,1581.35,1578.11,1560.34,0.00,0.00,0.00,0.00,0.00,0.00,0.00,0.00,0.00,0.00,0.00,0.00,0.00,0.00,0.00,0.00,0.00,0.00,0.00,0.00,0.00,0.00,0.00,0.00,0.00,0.00,0.00,0.00,0.00,0.00,0.00,0.00,0.00,0.00,0.00,0.00,0.00,0.00,0.00,0.00,0.00,0.00,0.00,0.00,0.00,0.00,0.00,0.00,0.00,0.00,0.00,0.00,1616.88,1629.96,1637.44,1641.43,1643.08,1644.09,1643.64,1643.36,1644.39,1646.64,1648.83,1651.13,1651.24,1650.63,1649.97,1650.60,1650.71,1652.17,1653.67,1655.16,1653.47,1653.11,1653.01,1654.28,1653.82,1653.83,1653.62,1654.61,1656.01,1656.95,1657.10,1657.98,1658.10,1658.40,1657.20,1656.93,1656.94,1658.10,1660.48,1662.14,1661.53,1662.06,1661.29,1663.26,1662.62,1663.53,1663.26,1663.49,1664.11,1664.93,1666.20,1667.30,1667.58,1667.24,1668.47,1669.16,1669.23,1669.21,1668.79,1669.05,1667.43,1668.23,1669.68,1670.30,1671.63,1671.42,1671.73,1671.69,1671.70,1672.50,1672.75,1674.91,1675.43,1675.52,1674.88,1674.94,1675.33,1675.97,1677.19,1676.12,1675.76,1675.75,1677.69,1678.75,1679.06,1678.60,1678.97,1679.82,1680.80,1680.10,1681.16,1680.99,1682.35,1681.67,1682.04,1682.54,1683.67,1685.64,1686.67,1687.03,1687.19,1686.66,1687.76,1687.86,1688.32,1688.05,1687.78,1687.76,1687.85,1688.42,1689.79,1690.31,1690.99,1691.06,1691.61,1690.86,1690.18,1690.60,1691.45,1692.35,1692.59,1693.52,1693.95,1695.25,1695.45,1695.62,1695.51,1696.65,1696.59,1696.21,1696.22,1696.36,1697.52,1697.25,1697.19,1697.71,1698.81,1701.63,1701.36,1702.38,1701.18,1701.37,1701.32,1703.07,1704.20,1705.11,1703.45,1703.73,1703.52,1705.45,1706.31,1706.73,1707.41,1707.85,1708.14,1707.23,1707.38,1707.59,1708.20,1707.57,1707.96,1709.94,1710.86,1712.76,1711.98,1711.24,1709.06,1710.07,1712.88,1715.34,1715.29,1712.64,1711.49,1710.61,1712.52,1714.36,1719.42,1723.10,1727.00,1730.15,0.00,0.00,0.00,0.00,0.00,0.00,0.00,0.00,0.00,698.01,700.82,700.35,696.12,694.15,692.08,691.75,689.07,688.47,681.54,678.51,673.05,667.39,659.84,655.78,654.44,653.49,654.05,655.20,656.85,657.03,656.29,655.92,653.50,651.75,649.65,650.16,650.31,652.98,653.98,655.35,652.25,651.60,651.49,652.22,651.48,651.62,651.80,652.37,653.40,654.87,654.78,654.45,653.31,653.12,652.16,652.70,652.57,654.02,654.25,657.10,657.71,660.53,661.69,661.26,659.50,659.03,660.57,662.94,663.60,664.76,664.69,665.72,667.41,670.44,673.33,674.52,675.18,675.93,676.97,679.89,683.95,693.96,699.72,702.77,701.34,701.82,702.17,703.88,704.31,705.77,707.34,708.63,709.26,711.18,712.68,711.67,706.43,692.26,662.61,636.12,572.29,545.53,0.00,0.00,0.00,0.00,0.00,0.00,0.00,0.00,0.00,0.00,0.00,0.00,0.00,0.00,0.00,0.00,0.00,0.00,0.00,0.00,0.00,0.00,0.00,0.00,0.00,0.00,0.00,0.00,0.00,0.00,0.00,0.00,0.00,0.00,0.00,0.00,0.00,0.00,0.00,0.00,0.00,0.00,0.00,0.00,0.00,0.00,0.00,0.00,0.00,0.00,0.00,0.00,0.00,0.00,0.00,0.00,0.00,0.00,0.00,0.00,0.00,0.00,0.00,0.00,0.00,0.00,0.00,0.00,0.00,0.00,0.00,0.00,0.00,0.00,0.00,0.00,0.00,0.00,0.00,0.00,0.00,0.00,0.00,0.00,0.00,0.00,0.00,0.00,0.00,0.00,0.00,0.00,0.00,0.00,0.00,0.00,0.00,0.00,0.00,0.00,0.00,0.00,0.00,0.00,0.00,0.00,0.00,0.00,0.00,0.00,0.00,0.00,0.00,0.00,0.00,0.00,0.00,0.00,0.00,0.00,0.00,0.00,0.00,0.00,0.00,0.00,0.00,0.00,0.00,0.00,0.00,0.00,0.00,0.00
0.00,0.00,0.00,0.00,0.00,0.00,0.00,0.00,0.00,0.00,0.00,0.00,0.00,0.00,0.00,0.00,0.00,0.00,0.00,0.00,0.00,0.00,1550.16,1585.26,1598.09,1598.98,1594.60,1588.96,1578.62,1569.53,0.00,0.00,0.00,0.00,0.00,0.00,0.00,0.00,0.00,0.00,0.00,0.00,0.00,0.00,0.00,0.00,0.00,0.00,0.00,0.00,0.00,0.00,0.00,0.00,0.00,0.00,0.00,0.00,0.00,0.00,0.00,0.00,0.00,0.00,0.00,0.00,0.00,0.00,0.00,0.00,0.00,0.00,0.00,0.00,0.00,0.00,0.00,0.00,0.00,0.00,0.00,1620.33,1631.92,1641.67,1646.63,1649.19,1647.90,1647.90,1648.91,1651.23,1653.01,1652.41,1651.89,1651.56,1652.77,1653.68,1654.81,1656.70,1658.43,1658.02,1658.16,1658.25,1658.98,1657.62,1656.76,1657.23,1658.02,1659.83,1660.42,1660.94,1660.39,1660.47,1659.96,1660.36,1660.28,1661.31,1662.38,1664.49,1666.24,1665.15,1665.33,1665.72,1668.18,1668.04,1667.36,1666.73,1666.93,1668.34,1669.29,1671.29,1671.31,1671.46,1670.13,1670.50,1670.80,1671.81,1671.87,1671.56,1671.54,1671.72,1672.71,1673.64,1673.38,1673.54,1672.93,1674.31,1675.27,1676.13,1676.05,1676.71,1677.71,1678.15,1678.34,1679.12,1679.43,1679.97,1679.88,1681.37,1680.75,1680.90,1680.47,1682.06,1683.31,1684.05,1683.39,1683.72,1683.91,1684.85,1684.22,1686.25,1685.65,1686.48,1685.10,1685.65,1685.63,1686.59,1688.74,1691.03,1692.15,1691.86,1691.21,1690.75,1691.15,1690.78,1691.20,1691.95,1692.70,1692.79,1692.97,1693.47,1694.04,1694.14,1694.98,1696.01,1696.19,1696.05,1695.18,1695.39,1695.79,1696.54,1696.53,1697.84,1700.18,1701.49,1700.70,1700.16,1701.10,1701.56,1701.54,1700.78,1700.23,1701.01,1701.80,1703.55,1703.94,1703.70,1703.79,1703.97,1705.86,1706.35,1707.16,1707.57,1708.67,1708.63,1709.64,1708.28,1709.10,1708.17,1709.49,1709.06,1709.69,1710.17,1711.13,1710.64,1709.94,1710.16,1711.11,1711.29,1711.25,1712.07,1714.16,1715.77,1717.48,1716.80,1715.48,1712.91,1713.14,1714.98,1717.17,1718.73,1716.90,1716.65,1715.54,1717.70,1719.70,1722.55,1727.73,1730.46,1737.27,0.00,0.00,0.00,0.00,0.00,0.00,0.00,0.00,0.00,699.64,704.66,704.34,701.49,698.47,695.96,693.36,690.65,689.68,687.65,685.29,682.08,678.26,672.49,667.35,663.67,662.71,661.91,663.34,662.20,662.48,659.83,660.34,658.35,658.71,657.32,657.17,656.29,656.35,656.77,656.85,654.54,653.05,652.97,653.85,653.66,653.01,653.41,653.24,654.41,655.26,655.74,655.30,655.55,654.97,655.48,654.84,656.19,656.47,657.19,658.73,660.35,663.41,665.23,664.44,662.73,661.59,662.80,664.81,665.70,666.29,667.13,668.12,671.02,673.48,675.75,675.97,676.95,680.12,681.88,684.36,689.04,698.78,702.75,704.27,701.93,702.53,703.04,705.89,706.56,708.22,710.35,711.87,712.56,712.82,713.34,711.88,705.11,683.90,645.44,586.47,0.00,0.00,0.00,0.00,0.00,0.00,0.00,0.00,0.00,0.00,0.00,0.00,0.00,0.00,0.00,0.00,0.00,0.00,0.00,0.00,0.00,0.00,0.00,0.00,0.00,0.00,0.00,0.00,0.00,0.00,0.00,0.00,0.00,0.00,0.00,0.00,0.00,0.00,0.00,0.00,0.00,0.00,0.00,0.00,0.00,0.00,0.00,0.00,0.00,0.00,0.00,0.00,0.00,0.00,0.00,0.00,0.00,0.00,0.00,0.00,0.00,0.00,0.00,0.00,0.00,0.00,0.00,0.00,0.00,0.00,0.00,0.00,0.00,0.00,0.00,0.00,0.00,0.00,0.00,0.00,0.00,0.00,0.00,0.00,0.00,0.00,0.00,0.00,0.00,0.00,0.00,0.00,0.00,0.00,0.00,0.00,0.00,0.00,0.00,0.00,0.00,0.00,0.00,0.00,0.00,0.00,0.00,0.00,0.00,0.00,0.00,0.00,0.00,0.00,0.00,0.00,0.00,0.00,0.00,0.00,0.00,0.00,0.00,0.00,0.00,0.00,0.00,0.00,0.00,0.00,0.00,0.00,0.00,0.00,0.00,0.00
0.00,0.00,0.00,0.00,0.00,0.00,0.00,0.00,0.00,0.00,0.00,0.00,0.00,0.00,0.00,0.00,0.00,0.00,0.00,0.00,0.00,0.00,1553.14,1586.82,1601.66,1606.03,1607.75,1606.55,1605.74,1600.42,1594.92,1586.84,1581.54,0.00,0.00,0.00,0.00,0.00,0.00,0.00,0.00,0.00,0.00,0.00,0.00,0.00,0.00,0.00,0.00,0.00,0.00,0.00,0.00,0.00,0.00,0.00,0.00,0.00,0.00,0.00,0.00,0.00,0.00,0.00,0.00,0.00,0.00,0.00,0.00,0.00,0.00,0.00,0.00,0.00,0.00,0.00,0.00,0.00,0.00,0.00,0.00,0.00,0.00,1625.30,1638.84,1644.71,1646.62,1647.86,1648.82,1649.92,1651.42,1652.00,1652.98,1652.79,1654.33,1655.36,1657.13,1657.77,1658.57,1658.77,1658.63,1659.30,1659.79,1660.09,1658.70,1658.01,1657.83,1659.40,1660.38,1661.16,1661.31,1661.11,1660.77,1660.33,1660.53,1661.29,1663.47,1665.08,1666.32,1664.45,1665.22,1666.30,1669.11,1668.47,1667.18,1666.16,1667.43,1669.54,1671.36,1672.08,1672.34,1672.28,1671.75,1671.55,1672.01,1672.63,1672.83,1672.31,1673.85,1673.94,1673.74,1673.11,1673.91,1674.45,1674.06,1673.91,1675.82,1676.60,1676.98,1677.54,1678.62,1679.14,1679.66,1680.91,1682.02,1681.88,1681.44,1682.77,1682.13,1682.79,1682.56,1685.19,1685.91,1686.40,1684.96,1685.40,1684.67,1685.96,1686.51,1688.80,1687.34,1687.28,1686.32,1687.33,1687.98,1687.97,1690.08,1691.13,1693.89,1692.75,1691.78,1690.91,1692.47,1692.90,1692.68,1692.78,1693.67,1693.84,1694.31,1694.25,1694.75,1695.13,1697.20,1698.59,1697.85,1697.12,1695.63,1696.14,1696.65,1698.64,1698.54,1699.81,1701.08,1702.60,1701.44,1701.25,1701.64,1702.69,1703.52,1703.78,1702.81,1702.35,1702.61,1705.23,1706.42,1705.48,1704.48,1704.81,1706.99,1707.30,1707.61,1708.00,1708.97,1708.91,1709.73,1709.66,1711.03,1710.66,1711.59,1710.53,1710.27,1709.85,1711.17,1710.82,1710.70,1710.63,1711.30,1711.21,1711.94,1714.53,1715.99,1716.84,1718.05,1718.75,1718.34,1716.47,1715.53,1715.10,1716.01,1718.87,1718.12,1718.18,1717.15,1720.90,1722.69,1724.47,1727.66,1729.00,1733.00,0.00,0.00,0.00,0.00,0.00,0.00,0.00,0.00,0.00,697.38,702.68,703.08,701.42,698.84,695.37,691.71,688.11,687.55,686.22,683.23,679.04,673.93,671.32,669.27,667.86,666.22,663.48,662.70,659.99,658.47,655.94,655.73,653.98,656.44,657.38,658.66,657.20,656.63,656.32,655.71,652.95,651.43,651.57,652.60,652.70,650.76,651.30,651.19,651.68,651.79,652.95,654.02,654.72,653.01,653.99,652.69,654.88,655.63,655.91,656.68,657.11,660.37,661.71,661.34,660.46,660.53,661.25,663.61,664.65,665.27,665.10,666.08,668.67,671.40,672.38,673.22,674.60,678.11,680.42,683.46,690.11,698.50,701.95,702.70,701.69,700.86,700.85,703.94,705.30,707.31,707.96,708.83,709.78,709.55,709.97,706.54,694.51,656.22,593.66,0.00,0.00,0.00,0.00,0.00,0.00,0.00,0.00,0.00,0.00,0.00,0.00,0.00,0.00,0.00,0.00,0.00,0.00,0.00,0.00,0.00,0.00,0.00,0.00,0.00,0.00,0.00,0.00,0.00,0.00,0.00,0.00,0.00,0.00,0.00,0.00,0.00,0.00,0.00,0.00,0.00,0.00,0.00,0.00,0.00,0.00,0.00,0.00,0.00,0.00,0.00,0.00,0.00,0.00,0.00,0.00,0.00,0.00,0.00,0.00,0.00,0.00,0.00,0.00,0.00,0.00,0.00,0.00,0.00,0.00,0.00,0.00,0.00,0.00,0.00,0.00,0.00,0.00,0.00,0.00,0.00,0.00,0.00,0.00,0.00,0.00,0.00,0.00,0.00,0.00,0.00,0.00,0.00,0.00,0.00,0.00,0.00,0.00,0.00,0.00,0.00,0.00,0.00,0.00,0.00,0.00,0.00,0.00,0.00,0.00,0.00,0.00,0.00,0.00,0.00,0.00,0.00,0.00,0.00,0.00,0.00,0.00,0.00,0.00,0.00,0.00,0.00,0.00,0.00,0.00,0.00,0.00,0.00,0.00,0.00,0.00,0.00
0.00,0.00,0.00,0.00,0.00,0.00,0.00,0.00,0.00,0.00,0.00,0.00,0.00,0.00,0.00,0.00,0.00,0.00,0.00,0.00,0.00,0.00,1550.75,1589.92,1606.03,1610.98,1613.73,1615.48,1617.09,1615.89,1613.65,1612.78,1609.90,1606.00,1598.91,1590.10,0.00,0.00,0.00,0.00,0.00,0.00,0.00,0.00,0.00,0.00,0.00,0.00,0.00,0.00,0.00,0.00,0.00,0.00,0.00,0.00,0.00,0.00,0.00,0.00,0.00,0.00,0.00,0.00,0.00,0.00,0.00,0.00,0.00,0.00,0.00,0.00,0.00,0.00,0.00,0.00,0.00,0.00,0.00,0.00,0.00,0.00,0.00,0.00,0.00,1633.80,1641.06,1648.30,1650.08,1651.21,1651.70,1653.41,1654.62,1655.09,1656.51,1657.93,1659.19,1660.15,1661.49,1663.28,1662.68,1663.79,1663.25,1664.72,1663.49,1663.74,1663.33,1663.55,1664.36,1665.01,1664.71,1665.46,1664.41,1665.18,1664.51,1666.54,1667.91,1669.07,1669.50,1669.46,1670.29,1671.55,1671.76,1671.53,1670.86,1671.42,1672.75,1674.42,1674.62,1674.90,1675.10,1675.96,1675.98,1675.71,1675.65,1675.91,1676.34,1677.19,1678.59,1678.90,1677.15,1676.09,1676.99,1678.56,1678.71,1678.59,1680.32,1681.12,1681.09,1682.54,1683.89,1684.09,1682.60,1683.09,1684.92,1686.54,1686.50,1686.86,1687.28,1688.73,1690.00,1691.65,1692.35,1692.22,1690.81,1690.50,1689.38,1689.56,1689.36,1691.15,1690.74,1691.34,1689.92,1690.65,1691.61,1692.55,1693.57,1694.05,1696.12,1696.09,1695.50,1695.60,1696.08,1697.00,1696.73,1697.36,1698.15,1699.05,1699.54,1699.43,1698.11,1698.48,1699.08,1701.56,1702.01,1702.75,1701.50,1700.99,1702.18,1702.99,1703.50,1703.57,1704.80,1705.52,1705.94,1706.08,1706.08,1705.41,1706.95,1707.71,1707.93,1707.87,1708.16,1710.56,1711.11,1709.94,1708.19,1708.68,1711.27,1711.26,1710.72,1710.57,1712.00,1712.59,1713.24,1713.73,1715.20,1715.02,1715.58,1714.49,1715.90,1714.81,1715.74,1714.81,1715.61,1715.68,1715.23,1714.92,1716.26,1718.58,1719.65,1719.36,1720.90,1721.35,1722.05,1720.89,1720.97,1721.41,1722.02,1723.76,1722.22,1722.28,1722.80,1725.59,1727.26,1728.33,1731.83,1734.61,1738.75,0.00,0.00,0.00,0.00,0.00,0.00,0.00,0.00,0.00,697.02,705.72,706.68,705.84,703.22,699.95,695.16,691.11,689.28,689.17,686.36,681.37,674.34,671.07,670.71,673.32,672.21,666.56,663.54,660.78,659.89,657.43,656.21,654.36,656.23,658.85,661.43,661.34,660.84,659.58,657.46,654.32,653.44,652.81,653.91,653.85,653.50,654.40,654.56,655.02,653.84,654.58,654.92,656.93,656.46,658.03,656.89,658.31,658.62,659.25,659.47,660.30,662.11,663.41,662.78,664.04,664.16,664.53,664.75,667.06,668.53,669.07,669.83,672.57,674.48,674.09,674.47,676.36,680.56,683.10,686.86,694.30,701.66,704.78,705.18,705.19,703.71,703.61,706.51,707.88,709.07,708.20,708.70,709.94,709.79,710.23,703.26,645.66,0.00,0.00,0.00,0.00,0.00,0.00,0.00,0.00,0.00,0.00,0.00,0.00,0.00,0.00,0.00,0.00,0.00,0.00,0.00,0.00,0.00,0.00,0.00,0.00,0.00,0.00,0.00,0.00,0.00,0.00,0.00,0.00,0.00,0.00,0.00,0.00,0.00,0.00,0.00,0.00,0.00,0.00,0.00,0.00,0.00,0.00,0.00,0.00,0.00,0.00,0.00,0.00,0.00,0.00,0.00,0.00,0.00,0.00,0.00,0.00,0.00,0.00,0.00,0.00,0.00,0.00,0.00,0.00,0.00,0.00,0.00,0.00,0.00,0.00,0.00,0.00,0.00,0.00,0.00,0.00,0.00,0.00,0.00,0.00,0.00,0.00,0.00,0.00,0.00,0.00,0.00,0.00,0.00,0.00,0.00,0.00,0.00,0.00,0.00,0.00,0.00,0.00,0.00,0.00,0.00,0.00,0.00,0.00,0.00,0.00,0.00,0.00,0.00,0.00,0.00,0.00,0.00,0.00,0.00,0.00,0.00,0.00,0.00,0.00,0.00,0.00,0.00,0.00,0.00,0.00,0.00,0.00,0.00,0.00,0.00,0.00,0.00,0.00,0.00
0.00,0.00,0.00,0.00,0.00,0.00,0.00,0.00,0.00,0.00,0.00,0.00,0.00,0.00,0.00,0.00,0.00,0.00,0.00,0.00,0.00,0.00,0.00,1586.42,1603.74,1610.32,1613.87,1617.42,1619.56,1619.65,1621.10,1624.93,1625.73,1625.73,1621.28,1618.73,1612.69,1606.84,1596.18,0.00,0.00,0.00,0.00,0.00,0.00,0.00,0.00,0.00,0.00,0.00,0.00,0.00,0.00,0.00,0.00,0.00,0.00,0.00,0.00,0.00,0.00,0.00,0.00,0.00,0.00,0.00,0.00,0.00,0.00,0.00,0.00,0.00,0.00,0.00,0.00,0.00,0.00,0.00,0.00,0.00,0.00,0.00,0.00,0.00,0.00,0.00,0.00,1638.32,1644.99,1650.00,1651.67,1653.97,1653.49,1653.76,1656.22,1658.45,1659.87,1659.76,1660.52,1662.37,1661.21,1661.84,1661.24,1664.00,1664.11,1664.21,1663.26,1662.44,1663.42,1664.90,1666.53,1667.48,1667.34,1667.03,1667.06,1667.95,1669.80,1670.40,1670.71,1670.48,1671.06,1671.46,1671.95,1673.05,1674.23,1673.92,1674.23,1674.36,1674.60,1674.96,1676.62,1677.97,1678.75,1677.50,1677.56,1676.60,1677.51,1678.25,1678.70,1678.18,1676.80,1678.13,1679.65,1681.36,1681.00,1681.05,1681.66,1682.28,1682.57,1683.88,1684.97,1684.29,1684.06,1683.63,1685.19,1686.10,1687.25,1688.57,1688.79,1690.15,1691.57,1692.48,1692.48,1691.87,1691.25,1691.68,1691.80,1692.18,1691.37,1690.94,1691.31,1692.58,1691.56,1691.57,1692.52,1694.77,1695.58,1695.23,1696.12,1696.30,1695.87,1696.07,1696.83,1698.10,1698.47,1697.36,1698.20,1699.16,1700.79,1701.18,1699.28,1699.71,1700.04,1703.22,1703.49,1704.01,1702.88,1704.04,1704.60,1705.00,1704.12,1703.87,1704.30,1705.21,1706.51,1706.90,1706.19,1705.27,1707.03,1708.69,1709.58,1709.55,1709.03,1709.57,1710.55,1710.36,1709.85,1709.84,1712.57,1712.38,1712.01,1710.83,1713.09,1714.25,1714.82,1715.20,1715.69,1716.63,1717.36,1717.61,1717.94,1717.27,1718.15,1718.83,1718.56,1718.02,1717.59,1718.09,1719.47,1720.91,1721.38,1719.76,1720.16,1720.76,1722.85,1723.52,1723.75,1724.34,1723.43,1724.81,1724.29,1725.79,1726.36,1726.80,1728.00,1729.37,1733.45,1734.99,1738.75,0.00,0.00,0.00,0.00,0.00,0.00,0.00,0.00,0.00,684.27,703.97,706.25,704.86,702.54,699.29,693.98,688.44,685.55,684.61,683.57,679.14,673.01,668.57,667.33,667.77,667.03,662.26,660.20,658.20,656.62,655.28,653.34,652.58,652.35,654.63,657.21,658.92,658.46,656.38,653.15,651.86,651.29,651.24,651.28,651.23,651.08,651.93,652.74,653.75,652.74,653.00,654.17,655.80,654.72,654.91,654.55,657.09,657.75,659.84,660.30,660.76,660.94,661.59,661.34,662.39,662.92,663.80,664.87,666.89,667.94,667.79,669.29,671.93,673.78,673.21,672.33,674.61,676.95,681.06,684.82,692.74,700.06,703.07,704.61,705.42,704.07,703.66,705.12,706.49,706.83,705.62,705.95,707.40,707.38,705.98,675.68,0.00,0.00,0.00,0.00,0.00,0.00,0.00,0.00,0.00,0.00,0.00,0.00,0.00,0.00,0.00,0.00,0.00,0.00,0.00,0.00,0.00,0.00,0.00,0.00,0.00,0.00,0.00,0.00,0.00,0.00,0.00,0.00,0.00,0.00,0.00,0.00,0.00,0.00,0.00,0.00,0.00,0.00,0.00,0.00,0.00,0.00,0.00,0.00,0.00,0.00,0.00,0.00,0.00,0.00,0.00,0.00,0.00,0.00,0.00,0.00,0.00,0.00,0.00,0.00,0.00,0.00,0.00,0.00,0.00,0.00,0.00,0.00,0.00,0.00,0.00,0.00,0.00,0.00,0.00,0.00,0.00,0.00,0.00,0.00,0.00,0.00,0.00,0.00,0.00,0.00,0.00,0.00,0.00,0.00,0.00,0.00,0.00,0.00,0.00,0.00,0.00,0.00,0.00,0.00,0.00,0.00,0.00,0.00,0.00,0.00,0.00,0.00,0.00,0.00,0.00,0.00,0.00,0.00,0.00,0.00,0.00,0.00,0.00,0.00,0.00,0.00,0.00,0.00,0.00,0.00,0.00,0.00,0.00,0.00,0.00,0.00,0.00,0.00,0.00,0.00
0.00,0.00,0.00,0.00,0.00,0.00,0.00,0.00,0.00,0.00,0.00,0.00,0.00,0.00,0.00,0.00,0.00,0.00,0.00,0.00,0.00,0.00,0.00,1576.02,1603.60,1615.31,1618.15,1623.66,1624.68,1624.71,1625.10,1630.09,1631.99,1634.54,1632.68,1633.86,1630.64,1629.17,1623.39,1619.32,1611.44,1597.16,0.00,0.00,0.00,0.00,0.00,0.00,0.00,0.00,0.00,0.00,0.00,0.00,0.00,0.00,0.00,0.00,0.00,0.00,0.00,0.00,0.00,0.00,0.00,0.00,0.00,0.00,0.00,0.00,0.00,0.00,0.00,0.00,0.00,0.00,0.00,0.00,0.00,0.00,0.00,0.00,0.00,0.00,0.00,0.00,0.00,0.00,1631.95,1644.80,1652.41,1656.46,1655.87,1655.66,1658.53,1660.03,1661.89,1662.13,1664.93,1666.54,1665.94,1665.20,1664.38,1665.94,1665.86,1666.34,1665.81,1665.59,1666.68,1668.55,1669.58,1670.60,1670.84,1672.20,1672.29,1672.35,1672.65,1673.39,1674.25,1674.69,1674.50,1675.33,1675.37,1677.50,1677.81,1678.63,1677.03,1677.03,1675.92,1677.88,1679.93,1681.66,1682.25,1681.47,1681.66,1681.49,1682.57,1683.83,1682.43,1682.49,1682.46,1684.64,1685.36,1686.13,1686.58,1686.42,1686.34,1687.07,1687.68,1688.66,1689.01,1688.67,1687.90,1687.61,1688.13,1690.08,1690.14,1691.21,1692.02,1693.57,1695.46,1694.68,1695.15,1694.28,1694.72,1694.88,1695.32,1695.09,1694.77,1694.53,1695.94,1696.63,1696.12,1696.12,1697.78,1700.35,1700.36,1699.57,1699.48,1700.38,1701.07,1701.17,1700.58,1700.83,1701.83,1701.98,1702.50,1703.81,1705.52,1706.62,1704.87,1704.42,1703.48,1705.30,1706.60,1708.27,1707.73,1708.58,1708.75,1708.90,1707.51,1707.57,1708.24,1708.96,1710.65,1710.89,1711.42,1709.71,1711.33,1711.76,1713.54,1714.04,1714.34,1714.39,1715.33,1715.74,1715.33,1715.23,1716.14,1715.89,1715.88,1715.07,1716.44,1717.39,1718.44,1719.52,1720.02,1721.28,1721.49,1722.04,1723.38,1723.20,1723.42,1724.28,1723.67,1723.76,1722.53,1724.22,1725.23,1726.06,1725.46,1723.70,1723.99,1724.46,1726.73,1727.27,1728.56,1729.10,1728.96,1729.53,1729.95,1731.53,1731.94,1730.07,1730.62,1731.80,1736.02,1739.60,1744.16,0.00,0.00,0.00,0.00,0.00,0.00,0.00,0.00,0.00,0.00,707.27,710.55,709.45,705.98,702.26,697.28,691.45,687.11,684.56,683.99,682.60,678.09,672.22,669.64,668.66,667.27,664.06,661.77,660.53,658.36,656.70,654.68,653.87,653.75,655.27,657.28,658.08,657.58,655.77,654.24,654.03,653.81,654.06,653.55,653.03,653.16,654.43,656.45,657.65,657.67,656.56,656.21,656.17,655.91,656.70,657.67,660.89,661.31,664.02,663.64,665.73,665.39,666.63,665.50,665.86,666.31,667.55,667.97,669.06,669.32,671.22,673.26,676.04,676.30,676.84,676.51,678.60,679.95,684.04,687.87,696.93,703.59,706.15,707.23,706.93,705.54,705.95,707.22,708.29,708.20,709.00,710.30,710.70,708.77,699.27,0.00,0.00,0.00,0.00,0.00,0.00,0.00,0.00,0.00,0.00,0.00,0.00,0.00,0.00,0.00,0.00,0.00,0.00,0.00,0.00,0.00,0.00,0.00,0.00,0.00,0.00,0.00,0.00,0.00,0.00,0.00,0.00,0.00,0.00,0.00,0.00,0.00,0.00,0.00,0.00,0.00,0.00,0.00,0.00,0.00,0.00,0.00,0.00,0.00,0.00,0.00,0.00,0.00,0.00,0.00,0.00,0.00,0.00,0.00,0.00,0.00,0.00,0.00,0.00,0.00,0.00,0.00,0.00,0.00,0.00,0.00,0.00,0.00,0.00,0.00,0.00,0.00,0.00,0.00,0.00,0.00,0.00,0.00,0.00,0.00,0.00,0.00,0.00,0.00,0.00,0.00,0.00,0.00,0.00,0.00,0.00,0.00,0.00,0.00,0.00,0.00,0.00,0.00,0.00,0.00,0.00,0.00,0.00,0.00,0.00,0.00,0.00,0.00,0.00,0.00,0.00,0.00,0.00,0.00,0.00,0.00,0.00,0.00,0.00,0.00,0.00,0.00,0.00,0.00,0.00,0.00,0.00,0.00,0.00,0.00,0.00,0.00,0.00,0.00,0.00,0.00
0.00,0.00,0.00,0.00,0.00,0.00,0.00,0.00,0.00,0.00,0.00,0.00,0.00,0.00,0.00,0.00,0.00,0.00,0.00,0.00,0.00,0.00,0.00,1558.24,1599.73,1615.39,1618.82,1623.12,1624.34,1625.06,1625.24,1628.53,1631.84,1636.64,1638.41,1640.04,1639.79,1640.01,1639.79,1638.31,1635.06,1628.64,1619.46,1604.96,0.00,0.00,0.00,0.00,0.00,0.00,0.00,0.00,0.00,0.00,0.00,0.00,0.00,0.00,0.00,0.00,0.00,0.00,0.00,0.00,0.00,0.00,0.00,0.00,0.00,0.00,0.00,0.00,0.00,0.00,0.00,0.00,0.00,0.00,0.00,0.00,0.00,0.00,0.00,0.00,0.00,0.00,0.00,0.00,0.00,0.00,1642.32,1650.99,1653.37,1654.79,1657.52,1658.55,1660.96,1661.14,1664.85,1666.50,1667.26,1665.55,1663.65,1664.23,1664.95,1667.29,1668.14,1667.77,1668.52,1668.36,1669.50,1669.05,1671.75,1673.45,1674.62,1672.72,1673.63,1673.81,1675.33,1674.28,1674.90,1675.19,1676.66,1678.72,1679.40,1679.20,1677.11,1676.81,1676.13,1678.09,1679.57,1681.11,1681.73,1681.19,1682.24,1682.70,1684.04,1684.38,1682.69,1682.99,1684.48,1686.83,1687.06,1685.84,1686.42,1686.53,1687.50,1688.01,1688.38,1688.11,1688.12,1688.92,1689.86,1690.21,1690.35,1691.21,1691.05,1691.92,1692.36,1693.26,1694.15,1693.35,1694.42,1694.77,1696.35,1696.66,1696.92,1696.17,1696.55,1696.12,1698.00,1697.83,1698.37,1698.09,1699.87,1700.91,1701.71,1700.76,1700.64,1700.38,1700.93,1702.14,1702.65,1702.77,1702.79,1703.04,1704.87,1705.96,1707.54,1708.12,1707.74,1706.97,1706.53,1707.25,1707.98,1709.10,1709.03,1710.94,1710.26,1711.26,1709.21,1709.21,1708.91,1710.44,1712.39,1713.14,1713.18,1712.06,1713.57,1713.77,1715.55,1715.02,1716.21,1716.45,1717.50,1717.23,1716.37,1716.72,1717.04,1717.84,1717.34,1716.27,1716.23,1717.93,1719.85,1720.84,1721.34,1722.36,1723.08,1722.82,1723.33,1723.46,1724.68,1725.98,1725.40,1725.16,1724.20,1725.29,1726.05,1727.18,1726.20,1725.11,1724.80,1726.03,1727.39,1728.45,1729.30,1729.65,1728.07,1729.08,1731.11,1734.20,1733.41,1730.95,1730.99,1731.02,1733.97,1735.92,1741.14,0.00,0.00,0.00,0.00,0.00,0.00,0.00,0.00,0.00,0.00,704.82,709.12,707.72,704.20,698.91,695.77,690.47,686.68,681.61,678.87,677.02,675.09,672.07,670.01,667.04,662.90,659.64,657.03,656.36,654.01,653.17,651.88,651.89,652.03,652.13,653.26,652.27,651.85,651.09,652.18,653.35,652.89,653.35,652.74,652.29,651.29,651.45,653.02,653.87,655.05,654.14,655.06,653.16,653.86,653.60,655.75,658.46,659.16,662.13,662.00,663.02,662.24,662.65,663.57,663.47,665.07,666.55,667.93,668.01,667.75,670.25,673.02,675.18,675.34,676.72,677.27,678.86,679.42,682.68,687.17,698.08,705.70,707.90,707.47,706.23,704.94,705.84,706.68,707.14,706.74,708.86,711.35,710.20,704.66,640.93,0.00,0.00,0.00,0.00,0.00,0.00,0.00,0.00,0.00,0.00,0.00,0.00,0.00,0.00,0.00,0.00,0.00,0.00,0.00,0.00,0.00,0.00,0.00,0.00,0.00,0.00,0.00,0.00,0.00,0.00,0.00,0.00,0.00,0.00,0.00,0.00,0.00,0.00,0.00,0.00,0.00,0.00,0.00,0.00,0.00,0.00,0.00,0.00,0.00,0.00,0.00,0.00,0.00,0.00,0.00,0.00,0.00,0.00,0.00,0.00,0.00,0.00,0.00,0.00,0.00,0.00,0.00,0.00,0.00,0.00,0.00,0.00,0.00,0.00,0.00,0.00,0.00,0.00,0.00,0.00,0.00,0.00,0.00,0.00,0.00,0.00,0.00,0.00,0.00,0.00,0.00,0.00,0.00,0.00,0.00,0.00,0.00,0.00,0.00,0.00,0.00,0.00,0.00,0.00,0.00,0.00,0.00,0.00,0.00,0.00,0.00,0.00,0.00,0.00,0.00,0.00,0.00,0.00,0.00,0.00,0.00,0.00,0.00,0.00,0.00,0.00,0.00,0.00,0.00,0.00,0.00,0.00,0.00,0.00,0.00,0.00,0.00,0.00,0.00,0.00,0.00
0.00,0.00,0.00,0.00,0.00,0.00,0.00,0.00,0.00,0.00,0.00,0.00,0.00,0.00,0.00,0.00,0.00,0.00,0.00,0.00,0.00,0.00,0.00,1556.20,1597.26,1616.53,1622.86,1627.10,1628.55,1628.29,1627.15,1629.85,1633.44,1638.19,1641.17,1643.70,1645.12,1645.07,1646.34,1646.36,1646.90,1645.40,1641.78,1636.35,1624.40,1610.98,0.00,0.00,0.00,0.00,0.00,0.00,0.00,0.00,0.00,0.00,0.00,0.00,0.00,0.00,0.00,0.00,0.00,0.00,0.00,0.00,0.00,0.00,0.00,0.00,0.00,0.00,0.00,0.00,0.00,0.00,0.00,0.00,0.00,0.00,0.00,0.00,0.00,0.00,0.00,0.00,0.00,0.00,0.00,0.00,0.00,0.00,1645.11,1652.63,1658.70,1659.81,1661.50,1662.49,1667.00,1669.44,1669.44,1667.38,1666.25,1668.24,1669.55,1672.52,1672.98,1672.78,1671.54,1671.84,1672.71,1672.95,1674.10,1676.87,1677.61,1676.99,1676.22,1676.86,1677.29,1677.40,1677.46,1678.58,1679.52,1681.26,1681.15,1681.79,1680.15,1680.75,1680.17,1682.69,1682.88,1683.72,1684.03,1684.59,1685.84,1685.73,1686.99,1687.66,1686.81,1686.79,1688.94,1690.83,1691.28,1690.12,1690.56,1690.41,1691.54,1692.26,1692.92,1691.96,1693.03,1693.73,1694.19,1694.32,1695.31,1696.27,1695.07,1694.36,1695.29,1696.16,1697.80,1697.01,1698.67,1698.64,1700.51,1701.14,1700.94,1699.62,1699.38,1700.69,1702.55,1702.56,1702.50,1702.39,1704.51,1704.82,1705.20,1703.81,1704.29,1704.20,1705.11,1705.82,1706.01,1705.94,1706.22,1707.90,1710.25,1711.22,1712.24,1712.15,1712.90,1711.74,1711.79,1711.64,1712.72,1713.65,1712.76,1712.81,1712.91,1715.27,1715.45,1714.92,1713.79,1715.01,1716.95,1718.64,1719.71,1718.63,1719.31,1717.79,1719.96,1720.40,1722.27,1723.06,1722.66,1722.51,1721.19,1721.80,1721.60,1721.36,1720.94,1720.06,1720.40,1722.11,1723.65,1724.40,1725.66,1727.49,1728.02,1727.43,1727.46,1727.57,1727.94,1728.40,1730.26,1731.17,1730.26,1729.97,1729.95,1731.50,1730.05,1729.71,1729.60,1731.19,1732.37,1733.21,1734.18,1734.12,1733.55,1734.01,1735.87,1737.07,1736.54,1734.95,1735.22,1735.02,1738.47,1742.27,1747.78,0.00,0.00,0.00,0.00,0.00,0.00,0.00,0.00,0.00,0.00,706.88,712.02,711.67,707.67,701.01,698.92,695.09,691.51,685.00,680.91,678.81,676.95,675.50,674.46,670.96,665.04,661.55,658.55,659.30,657.23,656.61,654.64,653.84,653.87,653.54,654.21,653.34,652.10,652.16,653.16,654.78,655.23,656.30,656.07,655.25,654.43,655.75,656.72,656.81,657.31,656.22,657.02,655.74,657.89,657.81,659.69,660.47,661.33,663.39,663.12,664.07,663.59,665.57,666.35,667.04,668.55,670.67,670.77,670.23,669.35,673.12,676.04,678.42,678.15,679.73,681.41,682.93,682.51,684.58,689.95,703.61,712.70,716.70,714.33,712.04,709.74,710.04,710.08,709.66,709.76,712.16,713.97,709.41,692.48,0.00,0.00,0.00,0.00,0.00,0.00,0.00,0.00,0.00,0.00,0.00,0.00,0.00,0.00,0.00,0.00,0.00,0.00,0.00,0.00,0.00,0.00,0.00,0.00,0.00,0.00,0.00,0.00,0.00,0.00,0.00,0.00,0.00,0.00,0.00,0.00,0.00,0.00,0.00,0.00,0.00,0.00,0.00,0.00,0.00,0.00,0.00,0.00,0.00,0.00,0.00,0.00,0.00,0.00,0.00,0.00,0.00,0.00,0.00,0.00,0.00,0.00,0.00,0.00,0.00,0.00,0.00,0.00,0.00,0.00,0.00,0.00,0.00,0.00,0.00,0.00,0.00,0.00,0.00,0.00,0.00,0.00,0.00,0.00,0.00,0.00,0.00,0.00,0.00,0.00,0.00,0.00,0.00,0.00,0.00,0.00,0.00,0.00,0.00,0.00,0.00,0.00,0.00,0.00,0.00,0.00,0.00,0.00,0.00,0.00,0.00,0.00,0.00,0.00,0.00,0.00,0.00,0.00,0.00,0.00,0.00,0.00,0.00,0.00,0.00,0.00,0.00,0.00,0.00,0.00,0.00,0.00,0.00,0.00,0.00,0.00,0.00,0.00,0.00,0.00,0.00,0.00
0.00,0.00,0.00,0.00,0.00,0.00,0.00,0.00,0.00,0.00,0.00,0.00,0.00,0.00,0.00,0.00,0.00,0.00,0.00,0.00,0.00,0.00,0.00,0.00,1593.79,1610.74,1620.67,1624.48,1625.83,1626.43,1626.26,1629.27,1632.65,1637.17,1641.29,1644.20,1646.44,1646.56,1647.04,1647.42,1649.10,1650.55,1651.55,1649.31,1645.60,1638.37,1631.29,1623.38,1610.87,0.00,0.00,0.00,0.00,0.00,0.00,0.00,0.00,0.00,0.00,0.00,0.00,0.00,0.00,0.00,0.00,0.00,0.00,0.00,0.00,0.00,0.00,0.00,0.00,0.00,0.00,0.00,0.00,0.00,0.00,0.00,0.00,0.00,0.00,0.00,0.00,0.00,0.00,0.00,0.00,0.00,0.00,0.00,0.00,0.00,1651.33,1658.04,1661.30,1663.03,1665.37,1666.95,1666.46,1664.99,1665.06,1666.75,1669.11,1671.38,1673.35,1672.73,1672.72,1672.61,1674.11,1674.04,1674.05,1675.42,1676.61,1678.07,1679.32,1679.83,1679.76,1678.58,1678.36,1678.60,1679.85,1680.73,1681.61,1682.65,1682.73,1682.68,1681.52,1682.16,1682.70,1684.04,1685.50,1686.68,1688.03,1687.13,1687.77,1688.02,1687.83,1687.94,1689.97,1692.16,1692.33,1691.45,1692.31,1692.64,1693.34,1693.09,1693.62,1693.03,1694.67,1695.37,1695.96,1695.42,1697.14,1697.49,1697.54,1696.77,1697.68,1697.65,1697.98,1698.32,1700.20,1700.58,1702.12,1702.50,1702.47,1700.90,1700.27,1701.05,1702.83,1702.03,1702.10,1702.47,1704.88,1705.17,1704.99,1704.97,1706.27,1707.02,1706.90,1707.22,1708.26,1708.47,1708.48,1709.25,1711.10,1710.96,1710.59,1711.20,1712.79,1713.42,1714.02,1714.57,1715.32,1715.50,1715.00,1714.61,1715.92,1717.72,1717.94,1716.80,1716.00,1718.26,1719.61,1721.10,1720.82,1720.49,1720.02,1719.33,1720.81,1721.82,1722.91,1723.69,1723.54,1723.99,1723.47,1724.51,1725.09,1724.09,1723.11,1722.25,1724.09,1725.24,1725.50,1724.91,1726.70,1728.56,1729.20,1728.57,1728.08,1728.70,1729.46,1729.07,1731.13,1732.21,1733.08,1731.75,1731.33,1731.58,1730.98,1730.95,1731.37,1733.62,1734.53,1735.89,1736.09,1736.83,1735.97,1736.02,1736.36,1737.00,1735.70,1734.28,1735.21,1735.84,1741.24,1742.76,1747.57,0.00,0.00,0.00,0.00,0.00,0.00,0.00,0.00,0.00,0.00,702.12,710.27,710.71,707.49,700.04,697.37,693.43,689.81,684.00,680.15,676.78,674.18,671.97,670.87,665.83,660.80,656.82,654.56,656.08,655.47,655.38,652.25,652.08,651.26,650.94,650.69,650.70,649.75,649.02,649.25,651.33,652.51,653.41,652.93,652.12,652.27,653.49,653.97,653.67,654.00,653.74,655.67,655.67,658.14,657.31,658.16,657.89,658.54,660.28,661.36,662.29,662.20,663.37,664.25,664.69,666.72,667.97,669.13,668.85,669.93,672.42,673.66,674.54,674.65,676.22,678.72,679.83,680.58,682.69,690.94,704.06,715.03,719.12,718.35,716.08,713.92,712.28,711.16,710.21,709.67,709.05,704.58,691.70,0.00,0.00,0.00,0.00,0.00,0.00,0.00,0.00,0.00,0.00,0.00,0.00,0.00,0.00,0.00,0.00,0.00,0.00,0.00,0.00,0.00,0.00,0.00,0.00,0.00,0.00,0.00,0.00,0.00,0.00,0.00,0.00,0.00,0.00,0.00,0.00,0.00,0.00,0.00,0.00,0.00,0.00,0.00,0.00,0.00,0.00,0.00,0.00,0.00,0.00,0.00,0.00,0.00,0.00,0.00,0.00,0.00,0.00,0.00,0.00,0.00,0.00,0.00,0.00,0.00,0.00,0.00,0.00,0.00,0.00,0.00,0.00,0.00,0.00,0.00,0.00,0.00,0.00,0.00,0.00,0.00,0.00,0.00,0.00,0.00,0.00,0.00,0.00,0.00,0.00,0.00,0.00,0.00,0.00,0.00,0.00,0.00,0.00,0.00,0.00,0.00,0.00,0.00,0.00,0.00,0.00,0.00,0.00,0.00,0.00,0.00,0.00,0.00,0.00,0.00,0.00,0.00,0.00,0.00,0.00,0.00,0.00,0.00,0.00,0.00,0.00,0.00,0.00,0.00,0.00,0.00,0.00,0.00,0.00,0.00,0.00,0.00,0.00,0.00,0.00,0.00,0.00,0.00
0.00,0.00,0.00,0.00,0.00,0.00,0.00,0.00,0.00,0.00,0.00,0.00,0.00,0.00,0.00,0.00,0.00,0.00,0.00,0.00,0.00,0.00,0.00,0.00,1583.84,1609.69,1624.48,1628.21,1629.80,1630.15,1629.87,1632.47,1633.91,1636.88,1641.11,1645.36,1646.71,1648.13,1648.40,1650.55,1651.40,1655.09,1657.31,1656.48,1654.77,1651.24,1647.86,1642.85,1638.82,1634.81,1627.70,0.00,0.00,0.00,0.00,0.00,0.00,0.00,0.00,0.00,0.00,0.00,0.00,0.00,0.00,0.00,0.00,0.00,0.00,0.00,0.00,0.00,0.00,0.00,0.00,0.00,0.00,0.00,0.00,0.00,0.00,0.00,0.00,0.00,0.00,0.00,0.00,0.00,0.00,0.00,0.00,0.00,0.00,0.00,0.00,1649.15,1658.48,1663.77,1666.26,1667.92,1668.44,1668.06,1669.69,1670.85,1672.41,1673.54,1675.28,1676.83,1677.14,1678.02,1677.94,1678.83,1677.79,1678.36,1678.82,1681.04,1682.22,1683.16,1681.26,1680.23,1679.74,1682.40,1684.26,1685.11,1684.08,1685.84,1686.57,1688.35,1686.52,1687.34,1687.45,1688.94,1689.95,1691.43,1692.87,1691.96,1691.68,1692.00,1691.51,1691.94,1692.89,1694.79,1694.73,1694.40,1695.81,1697.62,1698.42,1698.01,1698.31,1698.10,1700.91,1700.55,1700.58,1698.84,1699.98,1699.93,1700.18,1700.94,1702.94,1702.48,1702.04,1702.25,1704.06,1704.23,1704.65,1705.42,1705.60,1704.49,1703.75,1705.40,1707.86,1707.58,1707.29,1707.32,1709.71,1710.18,1709.24,1709.47,1710.47,1712.30,1711.47,1711.42,1711.48,1711.67,1711.91,1712.98,1713.49,1713.26,1712.95,1714.57,1715.58,1716.55,1717.37,1718.69,1719.83,1719.62,1719.23,1717.50,1719.83,1721.12,1722.17,1721.90,1721.97,1724.32,1724.07,1724.96,1724.47,1724.06,1723.10,1722.82,1724.66,1726.00,1726.12,1725.90,1726.57,1728.53,1729.22,1729.12,1729.85,1728.29,1727.95,1727.76,1730.64,1731.01,1730.16,1730.11,1731.88,1733.30,1732.72,1732.48,1731.08,1732.57,1733.45,1735.08,1736.30,1737.64,1737.46,1736.69,1736.07,1736.56,1736.06,1736.37,1737.68,1738.77,1740.11,1740.36,1741.17,1740.82,1740.56,1739.93,1740.30,1740.23,1740.82,1740.15,1741.72,1743.71,1748.19,1749.18,1749.51,0.00,0.00,0.00,0.00,0.00,0.00,0.00,0.00,0.00,0.00,699.99,712.01,714.43,710.80,704.19,699.30,696.19,690.80,686.42,682.54,679.84,677.07,673.34,670.49,665.22,660.79,658.10,656.52,658.92,657.98,657.96,654.17,654.54,653.29,653.29,651.89,652.88,651.63,651.30,650.55,652.71,653.80,655.42,655.44,655.77,654.50,655.37,655.63,656.00,655.78,655.67,657.44,659.69,661.38,661.18,659.89,660.05,661.16,662.97,663.59,665.00,665.66,668.01,668.12,668.86,670.05,670.21,670.58,671.05,672.32,674.19,674.05,676.05,676.83,679.22,681.03,682.02,682.67,685.79,694.56,707.36,716.54,721.17,721.82,722.47,720.64,717.75,713.97,712.57,713.32,709.58,698.21,0.00,0.00,0.00,0.00,0.00,0.00,0.00,0.00,0.00,0.00,0.00,0.00,0.00,0.00,0.00,0.00,0.00,0.00,0.00,0.00,0.00,0.00,0.00,0.00,0.00,0.00,0.00,0.00,0.00,0.00,0.00,0.00,0.00,0.00,0.00,0.00,0.00,0.00,0.00,0.00,0.00,0.00,0.00,0.00,0.00,0.00,0.00,0.00,0.00,0.00,0.00,0.00,0.00,0.00,0.00,0.00,0.00,0.00,0.00,0.00,0.00,0.00,0.00,0.00,0.00,0.00,0.00,0.00,0.00,0.00,0.00,0.00,0.00,0.00,0.00,0.00,0.00,0.00,0.00,0.00,0.00,0.00,0.00,0.00,0.00,0.00,0.00,0.00,0.00,0.00,0.00,0.00,0.00,0.00,0.00,0.00,0.00,0.00,0.00,0.00,0.00,0.00,0.00,0.00,0.00,0.00,0.00,0.00,0.00,0.00,0.00,0.00,0.00,0.00,0.00,0.00,0.00,0.00,0.00,0.00,0.00,0.00,0.00,0.00,0.00,0.00,0.00,0.00,0.00,0.00,0.00,0.00,0.00,0.00,0.00,0.00,0.00,0.00,0.00,0.00,0.00,0.00,0.00,0.00
0.00,0.00,0.00,0.00,0.00,0.00,0.00,0.00,0.00,0.00,0.00,0.00,0.00,0.00,0.00,0.00,0.00,0.00,0.00,0.00,0.00,0.00,0.00,0.00,1575.04,1606.77,1623.26,1627.56,1627.46,1628.85,1628.83,1630.94,1631.22,1635.09,1641.17,1644.60,1646.43,1647.93,1651.94,1653.55,1654.41,1654.74,1656.79,1655.26,1655.92,1654.83,1654.37,1653.62,1652.18,1651.59,1648.52,1642.22,1631.79,0.00,0.00,0.00,0.00,0.00,0.00,0.00,0.00,0.00,0.00,0.00,0.00,0.00,0.00,0.00,0.00,0.00,0.00,0.00,0.00,0.00,0.00,0.00,0.00,0.00,0.00,0.00,0.00,0.00,0.00,0.00,0.00,0.00,0.00,0.00,0.00,0.00,0.00,0.00,0.00,0.00,0.00,0.00,0.00,1656.07,1662.62,1666.18,1668.33,1668.66,1670.87,1670.84,1671.61,1670.95,1674.28,1676.40,1678.21,1676.44,1676.35,1676.89,1677.81,1677.33,1677.44,1677.76,1678.59,1678.92,1678.02,1676.82,1678.39,1681.30,1683.82,1684.11,1684.25,1687.54,1689.70,1690.56,1687.76,1686.85,1687.77,1688.98,1690.67,1691.82,1693.29,1693.83,1694.26,1694.50,1692.95,1692.86,1694.00,1695.73,1695.89,1694.82,1695.56,1697.68,1698.88,1699.01,1699.13,1699.25,1700.68,1699.90,1700.04,1698.98,1699.49,1699.58,1700.26,1702.28,1704.32,1704.49,1702.97,1703.62,1705.83,1706.87,1706.34,1705.61,1705.16,1704.34,1704.20,1706.44,1709.41,1709.55,1709.05,1708.79,1710.23,1710.54,1710.57,1712.40,1712.89,1714.33,1712.99,1714.52,1714.39,1713.58,1713.00,1713.37,1713.76,1713.01,1713.40,1714.85,1715.91,1716.64,1718.31,1718.78,1719.33,1718.68,1719.73,1718.55,1720.49,1720.75,1721.54,1722.04,1723.37,1725.37,1724.83,1725.78,1725.97,1726.52,1724.68,1725.20,1725.42,1727.00,1726.60,1726.47,1727.54,1729.24,1730.88,1730.49,1731.38,1730.55,1730.69,1730.55,1733.07,1732.67,1732.25,1732.15,1733.69,1734.60,1733.64,1733.75,1732.32,1733.57,1733.44,1734.79,1735.56,1737.31,1737.75,1737.51,1737.43,1737.29,1738.51,1739.36,1740.52,1740.26,1740.96,1742.52,1742.88,1743.06,1741.70,1741.79,1741.18,1742.08,1742.67,1741.96,1742.38,1745.61,1750.73,1751.69,1748.98,1749.89,0.00,0.00,0.00,0.00,0.00,0.00,0.00,0.00,0.00,690.51,708.84,712.22,709.46,703.78,697.73,692.02,686.72,682.97,679.57,675.84,672.75,669.32,666.77,660.94,656.52,654.14,652.97,654.54,654.14,654.28,651.26,651.18,650.49,650.21,649.58,649.89,650.83,649.74,649.80,651.64,652.79,653.49,653.05,653.16,652.69,652.14,652.81,653.02,653.81,653.99,655.03,656.93,658.69,659.31,659.03,659.45,660.35,661.93,662.49,663.45,663.93,666.15,667.82,667.47,668.02,667.18,669.58,670.04,671.75,673.29,673.40,675.27,675.45,678.66,679.77,680.51,681.12,685.61,695.41,707.85,715.51,718.17,719.25,720.40,718.70,711.19,701.19,699.43,701.85,698.66,685.06,0.00,0.00,0.00,0.00,0.00,0.00,0.00,0.00,0.00,0.00,0.00,0.00,0.00,0.00,0.00,0.00,0.00,0.00,0.00,0.00,0.00,0.00,0.00,0.00,0.00,0.00,0.00,0.00,0.00,0.00,0.00,0.00,0.00,0.00,0.00,0.00,0.00,0.00,0.00,0.00,0.00,0.00,0.00,0.00,0.00,0.00,0.00,0.00,0.00,0.00,0.00,0.00,0.00,0.00,0.00,0.00,0.00,0.00,0.00,0.00,0.00,0.00,0.00,0.00,0.00,0.00,0.00,0.00,0.00,0.00,0.00,0.00,0.00,0.00,0.00,0.00,0.00,0.00,0.00,0.00,0.00,0.00,0.00,0.00,0.00,0.00,0.00,0.00,0.00,0.00,0.00,0.00,0.00,0.00,0.00,0.00,0.00,0.00,0.00,0.00,0.00,0.00,0.00,0.00,0.00,0.00,0.00,0.00,0.00,0.00,0.00,0.00,0.00,0.00,0.00,0.00,0.00,0.00,0.00,0.00,0.00,0.00,0.00,0.00,0.00,0.00,0.00,0.00,0.00,0.00,0.00,0.00,0.00,0.00,0.00,0.00,0.00,0.00,0.00,0.00,0.00,0.00,0.00,0.00
0.00,0.00,0.00,0.00,0.00,0.00,0.00,0.00,0.00,0.00,0.00,0.00,0.00,0.00,0.00,0.00,0.00,0.00,0.00,0.00,0.00,0.00,0.00,0.00,1560.30,1605.78,1625.65,1630.67,1629.99,1632.16,1633.08,1636.49,1633.33,1635.13,1641.01,1644.15,1646.67,1649.46,1656.07,1659.19,1660.38,1658.52,1658.25,1658.06,1659.94,1660.81,1660.29,1660.78,1659.81,1661.25,1658.10,1654.47,1646.92,1641.14,1632.44,0.00,0.00,0.00,0.00,0.00,0.00,0.00,0.00,0.00,0.00,0.00,0.00,0.00,0.00,0.00,0.00,0.00,0.00,0.00,0.00,0.00,0.00,0.00,0.00,0.00,0.00,0.00,0.00,0.00,0.00,0.00,0.00,0.00,0.00,0.00,0.00,0.00,0.00,0.00,0.00,0.00,0.00,0.00,1654.13,1664.10,1669.95,1672.96,1675.83,1676.41,1675.54,1674.81,1676.74,1678.79,1679.79,1678.61,1678.69,1679.12,1680.76,1680.40,1678.76,1674.89,1672.43,1671.52,1670.39,1671.71,1675.69,1680.88,1684.51,1685.71,1685.93,1688.75,1691.98,1694.56,1692.61,1692.03,1692.47,1693.26,1693.57,1694.20,1695.31,1695.98,1696.03,1696.67,1696.65,1697.05,1697.45,1697.72,1698.34,1697.73,1698.19,1699.62,1701.39,1702.36,1703.47,1703.26,1703.33,1701.26,1701.67,1702.31,1703.47,1704.27,1704.28,1706.13,1707.40,1707.31,1706.29,1706.56,1709.94,1710.92,1710.60,1709.59,1708.94,1708.84,1707.71,1710.59,1713.42,1715.34,1715.26,1714.42,1714.18,1714.14,1714.50,1716.02,1715.64,1717.89,1718.04,1718.82,1716.01,1715.39,1716.21,1718.28,1719.67,1719.68,1720.09,1718.70,1718.69,1719.05,1721.81,1722.63,1723.27,1722.52,1723.22,1722.20,1723.00,1723.67,1725.08,1725.61,1726.44,1727.76,1729.04,1729.82,1730.19,1730.01,1729.89,1730.57,1731.27,1732.17,1732.03,1731.51,1731.86,1732.05,1734.19,1734.08,1735.39,1735.38,1735.81,1735.98,1736.91,1736.88,1736.85,1737.19,1737.64,1738.57,1737.93,1739.24,1737.97,1738.81,1737.40,1739.05,1739.52,1741.24,1740.91,1741.70,1742.37,1742.05,1742.30,1743.11,1744.41,1743.36,1744.53,1746.23,1746.99,1746.07,1744.61,1745.28,1746.15,1747.41,1748.17,1747.30,1747.49,1750.52,1754.27,1756.49,1753.42,1755.44,0.00,0.00,0.00,0.00,0.00,0.00,0.00,0.00,0.00,680.30,709.54,713.90,711.98,706.00,699.58,693.84,689.56,685.18,681.58,677.69,674.54,671.25,668.81,664.17,659.82,657.14,655.58,655.08,654.98,655.17,654.01,652.57,652.03,651.30,651.23,651.77,652.90,652.57,652.78,654.79,655.26,655.48,655.59,656.54,656.26,654.88,655.89,657.07,657.25,657.02,657.02,659.45,660.15,660.12,660.76,662.06,664.08,665.16,664.91,665.62,666.41,668.86,670.13,669.77,670.65,670.63,673.00,673.59,674.80,676.69,678.05,680.59,680.46,682.45,681.65,683.12,683.68,689.30,697.34,710.79,717.38,720.43,720.76,721.88,718.71,708.93,700.05,697.72,698.49,692.43,0.00,0.00,0.00,0.00,0.00,0.00,0.00,0.00,0.00,0.00,0.00,0.00,0.00,0.00,0.00,0.00,0.00,0.00,0.00,0.00,0.00,0.00,0.00,0.00,0.00,0.00,0.00,0.00,0.00,0.00,0.00,0.00,0.00,0.00,0.00,0.00,0.00,0.00,0.00,0.00,0.00,0.00,0.00,0.00,0.00,0.00,0.00,0.00,0.00,0.00,0.00,0.00,0.00,0.00,0.00,0.00,0.00,0.00,0.00,0.00,0.00,0.00,0.00,0.00,0.00,0.00,0.00,0.00,0.00,0.00,0.00,0.00,0.00,0.00,0.00,0.00,0.00,0.00,0.00,0.00,0.00,0.00,0.00,0.00,0.00,0.00,0.00,0.00,0.00,0.00,0.00,0.00,0.00,0.00,0.00,0.00,0.00,0.00,0.00,0.00,0.00,0.00,0.00,0.00,0.00,0.00,0.00,0.00,0.00,0.00,0.00,0.00,0.00,0.00,0.00,0.00,0.00,0.00,0.00,0.00,0.00,0.00,0.00,0.00,0.00,0.00,0.00,0.00,0.00,0.00,0.00,0.00,0.00,0.00,0.00,0.00,0.00,0.00,0.00,0.00,0.00,0.00,0.00,0.00,0.00
0.00,0.00,0.00,0.00,0.00,0.00,0.00,0.00,0.00,0.00,0.00,0.00,0.00,0.00,0.00,0.00,0.00,0.00,0.00,0.00,0.00,0.00,0.00,0.00,0.00,1601.66,1620.95,1628.12,1628.94,1630.70,1632.20,1635.70,1634.75,1636.44,1639.67,1642.53,1645.28,1648.36,1654.38,1656.97,1658.51,1655.73,1655.76,1655.74,1658.42,1659.23,1660.70,1661.36,1661.39,1661.68,1660.18,1659.08,1656.95,1654.59,1650.95,1644.40,1634.19,0.00,0.00,0.00,0.00,0.00,0.00,0.00,0.00,0.00,0.00,0.00,0.00,0.00,0.00,0.00,0.00,0.00,0.00,0.00,0.00,0.00,0.00,0.00,0.00,0.00,0.00,0.00,0.00,0.00,0.00,0.00,0.00,0.00,0.00,0.00,0.00,0.00,0.00,0.00,0.00,0.00,0.00,0.00,1663.60,1669.65,1674.33,1675.91,1676.13,1675.03,1676.31,1677.17,1677.92,1677.12,1678.38,1679.50,1679.80,1677.94,1670.29,1647.54,1638.01,1645.14,1655.51,1663.14,1670.92,1675.82,1681.03,1683.73,1686.16,1689.75,1691.42,1692.65,1691.16,1691.54,1692.42,1693.07,1693.39,1693.80,1694.60,1694.68,1694.61,1694.88,1695.42,1695.37,1696.73,1696.40,1697.66,1697.63,1699.93,1700.21,1700.89,1700.24,1702.44,1701.71,1701.75,1700.11,1702.18,1703.03,1705.05,1705.16,1706.04,1706.12,1707.00,1707.43,1707.54,1707.30,1709.11,1710.03,1711.36,1710.92,1710.91,1710.74,1710.48,1711.59,1713.55,1714.23,1714.45,1713.37,1714.09,1714.53,1716.08,1716.60,1716.39,1717.84,1719.82,1720.05,1717.14,1715.93,1718.21,1720.61,1721.48,1721.22,1720.97,1719.86,1719.19,1720.25,1723.21,1724.53,1724.92,1724.18,1725.23,1725.81,1726.27,1726.45,1726.65,1727.10,1727.47,1728.01,1729.95,1731.17,1731.83,1731.53,1732.52,1733.09,1733.26,1732.86,1733.12,1732.81,1732.96,1732.74,1734.88,1735.46,1736.04,1736.10,1736.80,1738.33,1738.68,1738.03,1737.44,1736.72,1737.55,1739.03,1739.23,1740.10,1739.20,1739.14,1737.12,1736.96,1738.90,1742.08,1742.94,1743.42,1743.58,1742.73,1743.65,1744.71,1745.82,1744.72,1745.84,1748.32,1748.73,1748.03,1746.98,1747.70,1748.49,1748.90,1748.71,1747.29,1748.59,1751.17,1754.91,1758.03,1756.03,1757.02,0.00,0.00,0.00,0.00,0.00,0.00,0.00,0.00,0.00,0.00,704.28,710.87,710.86,705.22,699.21,692.04,688.99,684.40,681.77,677.68,674.28,668.94,666.00,660.46,657.14,653.31,652.71,651.34,652.74,652.25,652.29,650.14,649.84,649.44,650.58,650.57,651.30,650.73,651.37,653.33,654.83,654.99,654.85,654.56,656.47,655.20,656.82,656.82,657.56,656.67,656.46,657.61,657.94,658.04,659.34,661.10,662.83,663.65,664.09,665.08,665.38,666.40,667.61,668.18,669.82,669.74,672.13,672.70,674.40,675.93,677.38,679.55,679.22,680.70,679.91,682.15,683.52,689.55,698.43,711.60,716.31,717.63,718.86,720.61,718.91,707.85,699.57,692.87,687.21,0.00,0.00,0.00,0.00,0.00,0.00,0.00,0.00,0.00,0.00,0.00,0.00,0.00,0.00,0.00,0.00,0.00,0.00,0.00,0.00,0.00,0.00,0.00,0.00,0.00,0.00,0.00,0.00,0.00,0.00,0.00,0.00,0.00,0.00,0.00,0.00,0.00,0.00,0.00,0.00,0.00,0.00,0.00,0.00,0.00,0.00,0.00,0.00,0.00,0.00,0.00,0.00,0.00,0.00,0.00,0.00,0.00,0.00,0.00,0.00,0.00,0.00,0.00,0.00,0.00,0.00,0.00,0.00,0.00,0.00,0.00,0.00,0.00,0.00,0.00,0.00,0.00,0.00,0.00,0.00,0.00,0.00,0.00,0.00,0.00,0.00,0.00,0.00,0.00,0.00,0.00,0.00,0.00,0.00,0.00,0.00,0.00,0.00,0.00,0.00,0.00,0.00,0.00,0.00,0.00,0.00,0.00,0.00,0.00,0.00,0.00,0.00,0.00,0.00,0.00,0.00,0.00,0.00,0.00,0.00,0.00,0.00,0.00,0.00,0.00,0.00,0.00,0.00,0.00,0.00,0.00,0.00,0.00,0.00,0.00,0.00,0.00,0.00,0.00,0.00,0.00,0.00,0.00,0.00,0.00,0.00
0.00,0.00,0.00,0.00,0.00,0.00,0.00,0.00,0.00,0.00,0.00,0.00,0.00,0.00,0.00,0.00,0.00,0.00,0.00,0.00,0.00,0.00,0.00,0.00,0.00,1592.09,1617.78,1628.78,1632.67,1633.54,1633.83,1636.92,1638.21,1639.76,1641.04,1644.94,1646.50,1649.71,1651.25,1655.26,1656.33,1656.93,1656.79,1657.99,1659.74,1661.78,1662.12,1661.13,1661.93,1662.62,1662.34,1661.80,1661.95,1662.32,1660.85,1658.36,1652.61,1647.55,1638.96,1628.03,0.00,0.00,0.00,0.00,0.00,0.00,0.00,0.00,0.00,0.00,0.00,0.00,0.00,0.00,0.00,0.00,0.00,0.00,0.00,0.00,0.00,0.00,0.00,0.00,0.00,0.00,0.00,0.00,0.00,0.00,0.00,0.00,0.00,0.00,0.00,0.00,0.00,0.00,0.00,0.00,0.00,1660.17,1669.63,1674.84,1676.83,1677.60,1677.97,1677.63,1679.26,1681.70,1683.11,1682.40,1677.75,0.00,0.00,0.00,0.00,1661.34,1670.16,1674.54,1674.38,1674.43,1679.51,1685.96,1688.99,1692.76,1693.34,1695.71,1695.42,1696.53,1696.57,1697.37,1696.78,1697.31,1697.37,1697.56,1697.04,1697.76,1699.20,1699.35,1699.24,1698.20,1699.38,1700.18,1702.98,1702.79,1703.86,1702.60,1704.95,1704.49,1705.81,1704.93,1705.96,1706.03,1707.26,1707.47,1708.68,1709.49,1710.11,1709.97,1709.18,1708.76,1709.71,1711.68,1714.54,1715.44,1714.84,1714.93,1714.54,1714.60,1715.72,1716.45,1718.63,1718.61,1719.61,1719.90,1720.46,1720.60,1720.34,1721.41,1723.78,1723.71,1721.58,1721.34,1723.61,1725.96,1726.53,1727.36,1726.82,1725.86,1724.33,1725.37,1727.42,1728.75,1730.28,1729.47,1730.90,1731.47,1731.52,1731.34,1731.01,1732.27,1732.43,1732.80,1734.26,1734.18,1734.23,1733.41,1735.43,1736.20,1737.41,1737.63,1737.99,1737.34,1736.28,1736.85,1737.90,1738.80,1738.54,1739.47,1740.66,1742.18,1742.57,1741.88,1741.90,1741.51,1742.50,1743.05,1743.31,1743.86,1743.15,1742.43,1741.20,1741.33,1742.83,1744.94,1745.74,1746.91,1748.16,1748.13,1748.05,1748.14,1749.14,1748.89,1750.22,1751.17,1752.56,1751.77,1752.00,1752.02,1753.52,1753.70,1753.90,1752.91,1755.71,1757.25,1760.03,1760.40,1759.13,1762.03,0.00,0.00,0.00,0.00,0.00,0.00,0.00,0.00,0.00,0.00,704.71,711.95,712.92,708.83,703.75,698.78,694.37,688.89,685.23,681.66,678.72,672.26,668.76,664.06,660.80,656.43,655.06,652.99,654.09,653.40,653.89,651.94,651.14,651.94,652.50,652.59,652.24,653.09,654.43,655.22,656.95,658.24,659.50,659.17,659.95,659.05,660.32,660.72,661.55,660.58,660.82,661.17,661.11,660.86,661.90,664.23,665.83,667.07,667.37,669.00,669.75,670.35,670.23,671.03,673.49,674.21,674.71,675.21,676.54,678.85,679.62,681.93,682.27,682.59,682.26,685.33,688.51,694.02,701.83,713.13,716.50,717.47,719.16,721.22,720.71,710.76,702.96,691.36,669.49,0.00,0.00,0.00,0.00,0.00,0.00,0.00,0.00,0.00,0.00,0.00,0.00,0.00,0.00,0.00,0.00,0.00,0.00,0.00,0.00,0.00,0.00,0.00,0.00,0.00,0.00,0.00,0.00,0.00,0.00,0.00,0.00,0.00,0.00,0.00,0.00,0.00,0.00,0.00,0.00,0.00,0.00,0.00,0.00,0.00,0.00,0.00,0.00,0.00,0.00,0.00,0.00,0.00,0.00,0.00,0.00,0.00,0.00,0.00,0.00,0.00,0.00,0.00,0.00,0.00,0.00,0.00,0.00,0.00,0.00,0.00,0.00,0.00,0.00,0.00,0.00,0.00,0.00,0.00,0.00,0.00,0.00,0.00,0.00,0.00,0.00,0.00,0.00,0.00,0.00,0.00,0.00,0.00,0.00,0.00,0.00,0.00,0.00,0.00,0.00,0.00,0.00,0.00,0.00,0.00,0.00,0.00,0.00,0.00,0.00,0.00,0.00,0.00,0.00,0.00,0.00,0.00,0.00,0.00,0.00,0.00,0.00,0.00,0.00,0.00,0.00,0.00,0.00,0.00,0.00,0.00,0.00,0.00,0.00,0.00,0.00,0.00,0.00,0.00,0.00,0.00,0.00,0.00,0.00,0.00,0.00
0.00,0.00,0.00,0.00,0.00,0.00,0.00,0.00,0.00,0.00,0.00,0.00,0.00,0.00,0.00,0.00,0.00,0.00,0.00,0.00,0.00,0.00,0.00,0.00,0.00,1580.42,1610.82,1625.23,1630.78,1631.18,1632.53,1633.55,1637.55,1639.94,1642.12,1644.56,1646.25,1648.29,1649.29,1650.51,1652.17,1653.21,1655.64,1656.67,1658.50,1658.56,1659.93,1658.20,1660.65,1661.49,1662.40,1662.11,1663.30,1664.02,1662.35,1658.83,1656.53,1655.98,1654.53,1649.65,1642.02,1631.18,0.00,0.00,0.00,0.00,0.00,0.00,0.00,0.00,0.00,0.00,0.00,0.00,0.00,0.00,0.00,0.00,0.00,0.00,0.00,0.00,0.00,0.00,0.00,0.00,0.00,0.00,0.00,0.00,0.00,0.00,0.00,0.00,0.00,0.00,0.00,0.00,0.00,0.00,0.00,0.00,0.00,1660.88,1667.59,1670.45,1672.56,1672.72,1674.50,1674.38,1673.71,1671.63,0.00,0.00,0.00,1666.54,1671.03,1674.76,1680.32,1682.91,1681.05,1676.56,1666.97,1682.53,1688.46,1692.35,1692.22,1692.61,1693.86,1696.06,1697.28,1696.96,1696.25,1696.37,1696.69,1697.62,1697.88,1698.89,1699.45,1699.57,1699.94,1700.26,1701.00,1701.44,1702.65,1703.25,1703.88,1703.08,1704.09,1704.84,1706.94,1706.96,1706.90,1706.49,1707.86,1708.33,1710.40,1710.41,1711.20,1710.73,1710.24,1709.55,1709.51,1711.63,1714.71,1716.34,1716.06,1715.96,1715.86,1715.31,1714.88,1714.50,1716.27,1717.30,1718.75,1718.93,1720.34,1721.26,1721.42,1721.20,1722.84,1724.00,1724.73,1724.07,1725.00,1724.77,1725.57,1726.89,1728.02,1728.95,1727.97,1727.96,1728.90,1730.09,1731.38,1731.33,1732.25,1733.48,1733.51,1733.17,1732.40,1733.91,1734.50,1734.55,1734.17,1733.44,1733.57,1733.68,1735.74,1736.50,1737.95,1738.82,1738.89,1737.87,1736.65,1737.97,1738.42,1738.61,1737.89,1738.62,1740.01,1742.26,1743.04,1743.32,1742.71,1742.78,1742.45,1742.71,1743.10,1743.45,1743.10,1741.73,1742.29,1742.84,1744.70,1745.86,1746.74,1747.84,1748.64,1749.41,1750.61,1751.73,1751.29,1750.13,1750.45,1751.77,1754.17,1753.99,1754.40,1753.93,1754.14,1754.61,1756.00,1756.32,1758.27,1759.18,1761.89,1761.84,1759.17,1761.20,0.00,0.00,0.00,0.00,0.00,0.00,0.00,0.00,0.00,0.00,699.07,708.15,712.12,709.97,705.45,699.10,693.59,688.22,684.74,681.52,679.10,671.62,668.29,663.38,660.94,655.40,654.21,652.45,652.61,651.60,651.33,650.65,650.77,653.04,653.69,652.38,650.96,652.19,653.05,653.93,656.50,659.12,660.12,659.47,660.21,659.49,658.84,658.26,659.82,659.08,659.67,659.77,660.68,660.94,661.32,663.12,664.23,665.43,666.34,667.94,669.43,670.50,671.20,671.63,672.74,673.48,673.73,674.88,675.56,677.84,678.18,680.50,681.40,683.15,683.52,686.58,689.88,695.30,703.95,712.84,715.89,715.91,717.93,719.12,718.35,709.04,698.25,679.01,0.00,0.00,0.00,0.00,0.00,0.00,0.00,0.00,0.00,0.00,0.00,0.00,0.00,0.00,0.00,0.00,0.00,0.00,0.00,0.00,0.00,0.00,0.00,0.00,0.00,0.00,0.00,0.00,0.00,0.00,0.00,0.00,0.00,0.00,0.00,0.00,0.00,0.00,0.00,0.00,0.00,0.00,0.00,0.00,0.00,0.00,0.00,0.00,0.00,0.00,0.00,0.00,0.00,0.00,0.00,0.00,0.00,0.00,0.00,0.00,0.00,0.00,0.00,0.00,0.00,0.00,0.00,0.00,0.00,0.00,0.00,0.00,0.00,0.00,0.00,0.00,0.00,0.00,0.00,0.00,0.00,0.00,0.00,0.00,0.00,0.00,0.00,0.00,0.00,0.00,0.00,0.00,0.00,0.00,0.00,0.00,0.00,0.00,0.00,0.00,0.00,0.00,0.00,0.00,0.00,0.00,0.00,0.00,0.00,0.00,0.00,0.00,0.00,0.00,0.00,0.00,0.00,0.00,0.00,0.00,0.00,0.00,0.00,0.00,0.00,0.00,0.00,0.00,0.00,0.00,0.00,0.00,0.00,0.00,0.00,0.00,0.00,0.00,0.00,0.00,0.00,0.00,0.00,0.00,0.00,0.00,0.00
0.00,0.00,0.00,0.00,0.00,0.00,0.00,0.00,0.00,0.00,0.00,0.00,0.00,0.00,0.00,0.00,0.00,0.00,0.00,0.00,0.00,0.00,0.00,0.00,0.00,1566.83,1608.91,1627.68,1631.95,1632.06,1633.04,1634.49,1638.19,1640.58,1644.91,1648.19,1649.64,1650.52,1650.09,1651.91,1653.60,1656.11,1657.91,1660.14,1662.03,1664.04,1664.38,1663.44,1663.53,1664.96,1664.39,1665.01,1664.46,1666.82,1664.91,1664.42,1662.76,1664.06,1662.23,1659.74,1656.06,1650.90,1643.48,1632.18,0.00,0.00,0.00,0.00,0.00,0.00,0.00,0.00,0.00,0.00,0.00,0.00,0.00,0.00,0.00,0.00,0.00,0.00,0.00,0.00,0.00,0.00,0.00,0.00,0.00,0.00,0.00,0.00,0.00,0.00,0.00,0.00,0.00,0.00,0.00,0.00,0.00,0.00,0.00,0.00,1653.82,1662.75,1668.56,1671.37,1672.41,1669.51,1663.61,0.00,0.00,0.00,1672.25,1674.92,1677.16,1680.40,1684.46,1686.39,1683.29,1679.60,0.00,1678.35,1686.70,1690.81,1693.69,1696.12,1697.67,1697.29,1697.89,1698.34,1698.48,1697.30,1696.99,1697.96,1699.00,1700.88,1701.69,1701.89,1701.20,1702.33,1702.82,1703.94,1703.03,1704.87,1705.74,1707.28,1707.55,1709.14,1709.59,1709.34,1707.62,1708.81,1710.26,1712.38,1713.89,1714.89,1714.77,1714.18,1713.36,1713.20,1715.16,1716.08,1718.28,1718.31,1718.41,1718.80,1719.22,1720.51,1719.10,1718.19,1719.18,1721.47,1723.26,1723.58,1724.28,1725.84,1726.43,1726.60,1726.98,1728.08,1728.12,1728.00,1727.56,1727.15,1728.50,1730.47,1732.17,1732.39,1732.18,1731.76,1732.20,1732.74,1734.22,1734.53,1734.35,1734.54,1734.74,1735.19,1735.03,1736.24,1736.39,1738.00,1737.92,1738.18,1737.83,1738.53,1738.97,1740.07,1741.07,1742.92,1742.60,1742.24,1741.77,1742.70,1743.82,1744.05,1744.15,1743.58,1744.36,1745.32,1745.41,1746.97,1748.16,1749.46,1747.69,1747.47,1748.25,1749.77,1749.14,1747.72,1748.37,1749.21,1748.02,1746.81,1748.66,1752.45,1754.10,1754.63,1755.34,1756.92,1755.64,1755.64,1755.30,1757.50,1759.91,1760.31,1759.74,1759.07,1759.07,1760.04,1761.96,1764.45,1765.42,1765.13,1764.90,1764.06,1763.61,1765.55,1772.30,0.00,0.00,0.00,0.00,0.00,0.00,0.00,0.00,0.00,689.76,710.14,714.19,713.20,708.88,702.98,696.71,691.10,688.35,686.59,685.39,678.62,673.27,669.16,666.85,662.42,659.34,656.83,655.06,653.13,652.04,652.68,654.26,656.68,656.62,655.63,655.18,656.37,656.93,657.18,659.57,661.58,662.62,662.62,663.64,663.92,662.57,661.90,661.46,661.25,661.67,662.58,663.22,663.25,664.15,665.90,667.76,669.02,669.98,670.89,672.48,674.42,675.05,675.40,675.78,677.32,676.70,677.55,677.73,680.91,682.31,684.79,686.15,687.20,687.34,688.85,692.15,698.35,707.48,715.88,719.37,720.17,721.73,721.70,718.61,708.26,691.19,0.00,0.00,0.00,0.00,0.00,0.00,0.00,0.00,0.00,0.00,0.00,0.00,0.00,0.00,0.00,0.00,0.00,0.00,0.00,0.00,0.00,0.00,0.00,0.00,0.00,0.00,0.00,0.00,0.00,0.00,0.00,0.00,0.00,0.00,0.00,0.00,0.00,0.00,0.00,0.00,0.00,0.00,0.00,0.00,0.00,0.00,0.00,0.00,0.00,0.00,0.00,0.00,0.00,0.00,0.00,0.00,0.00,0.00,0.00,0.00,0.00,0.00,0.00,0.00,0.00,0.00,0.00,0.00,0.00,0.00,0.00,0.00,0.00,0.00,0.00,0.00,0.00,0.00,0.00,0.00,0.00,0.00,0.00,0.00,0.00,0.00,0.00,0.00,0.00,0.00,0.00,0.00,0.00,0.00,0.00,0.00,0.00,0.00,0.00,0.00,0.00,0.00,0.00,0.00,0.00,0.00,0.00,0.00,0.00,0.00,0.00,0.00,0.00,0.00,0.00,0.00,0.00,0.00,0.00,0.00,0.00,0.00,0.00,0.00,0.00,0.00,0.00,0.00,0.00,0.00,0.00,0.00,0.00,0.00,0.00,0.00,0.00,0.00,0.00,0.00,0.00,0.00,0.00,0.00,0.00,0.00,0.00,0.00
0.00,0.00,0.00,0.00,0.00,0.00,0.00,0.00,0.00,0.00,0.00,0.00,0.00,0.00,0.00,0.00,0.00,0.00,0.00,0.00,0.00,0.00,0.00,0.00,0.00,0.00,1604.99,1622.22,1627.42,1628.51,1632.64,1635.41,1639.21,1641.36,1645.49,1646.73,1649.11,1649.58,1650.93,1650.82,1652.68,1653.48,1655.99,1657.20,1660.37,1661.77,1663.15,1662.34,1662.04,1663.22,1662.86,1664.19,1663.39,1665.27,1664.38,1664.23,1663.90,1664.65,1664.07,1662.87,1661.80,1660.05,1657.74,1651.58,1644.91,1635.53,0.00,0.00,0.00,0.00,0.00,0.00,0.00,0.00,0.00,0.00,0.00,0.00,0.00,0.00,0.00,0.00,0.00,0.00,0.00,0.00,0.00,0.00,0.00,0.00,0.00,0.00,0.00,0.00,0.00,0.00,0.00,0.00,0.00,0.00,0.00,0.00,0.00,0.00,0.00,0.00,1658.78,1663.62,1664.25,1656.01,0.00,0.00,1630.48,1670.81,1675.52,1676.94,1678.56,1679.83,1684.07,1687.49,1685.37,1681.98,0.00,1672.16,1683.33,1687.60,1690.79,1692.00,1691.75,1691.32,1692.71,1694.65,1695.50,1694.58,1694.21,1694.52,1695.44,1697.02,1697.11,1696.85,1697.26,1699.12,1700.28,1701.90,1701.66,1702.81,1702.25,1703.74,1704.09,1705.52,1705.03,1704.93,1704.75,1706.56,1709.24,1710.56,1711.91,1711.10,1711.84,1711.61,1713.41,1714.42,1716.69,1716.01,1716.31,1716.39,1717.50,1717.82,1718.72,1719.99,1719.15,1718.44,1718.85,1721.01,1722.53,1723.77,1724.72,1725.93,1726.23,1727.17,1727.44,1728.73,1728.48,1728.38,1728.42,1728.42,1729.54,1731.33,1732.34,1733.46,1733.39,1732.89,1730.48,1730.57,1731.78,1735.54,1735.71,1735.85,1735.17,1736.33,1736.84,1737.10,1736.53,1737.24,1737.17,1737.80,1739.28,1740.03,1740.09,1740.03,1741.51,1742.15,1742.28,1742.91,1744.92,1744.59,1745.66,1745.28,1746.55,1745.52,1745.58,1747.31,1747.09,1748.66,1749.35,1750.23,1748.61,1747.75,1749.03,1750.61,1750.77,1749.96,1751.36,1752.32,1751.27,1750.16,1751.91,1755.54,1755.74,1756.56,1757.72,1759.94,1758.56,1758.65,1757.77,1759.34,1760.54,1760.86,1760.87,1761.47,1761.68,1762.38,1763.80,1767.14,1767.55,1764.59,1762.91,1761.83,1764.29,1763.95,1768.91,0.00,0.00,0.00,0.00,0.00,0.00,0.00,0.00,0.00,0.00,706.69,712.93,712.68,709.09,702.43,695.29,688.47,686.71,686.53,687.58,680.14,673.37,668.95,667.50,664.25,660.79,658.06,654.98,652.15,650.73,651.74,654.94,656.78,657.41,656.18,657.06,657.63,658.00,657.88,659.47,660.33,661.80,662.85,664.84,664.41,662.91,660.96,659.40,659.04,659.61,661.10,661.42,661.28,662.50,663.75,666.20,666.72,668.21,668.42,671.08,672.70,674.17,674.86,675.77,676.54,676.06,676.12,676.61,678.76,681.20,683.53,683.77,685.18,686.43,689.14,691.90,698.01,706.15,714.31,719.19,720.13,720.63,718.92,714.09,699.76,636.64,0.00,0.00,0.00,0.00,0.00,0.00,0.00,0.00,0.00,0.00,0.00,0.00,0.00,0.00,0.00,0.00,0.00,0.00,0.00,0.00,0.00,0.00,0.00,0.00,0.00,0.00,0.00,0.00,0.00,0.00,0.00,0.00,0.00,0.00,0.00,0.00,0.00,0.00,0.00,0.00,0.00,0.00,0.00,0.00,0.00,0.00,0.00,0.00,0.00,0.00,0.00,0.00,0.00,0.00,0.00,0.00,0.00,0.00,0.00,0.00,0.00,0.00,0.00,0.00,0.00,0.00,0.00,0.00,0.00,0.00,0.00,0.00,0.00,0.00,0.00,0.00,0.00,0.00,0.00,0.00,0.00,0.00,0.00,0.00,0.00,0.00,0.00,0.00,0.00,0.00,0.00,0.00,0.00,0.00,0.00,0.00,0.00,0.00,0.00,0.00,0.00,0.00,0.00,0.00,0.00,0.00,0.00,0.00,0.00,0.00,0.00,0.00,0.00,0.00,0.00,0.00,0.00,0.00,0.00,0.00,0.00,0.00,0.00,0.00,0.00,0.00,0.00,0.00,0.00,0.00,0.00,0.00,0.00,0.00,0.00,0.00,0.00,0.00,0.00,0.00,0.00,0.00,0.00,0.00,0.00,0.00,0.00,0.00
0.00,0.00,0.00,0.00,0.00,0.00,0.00,0.00,0.00,0.00,0.00,0.00,0.00,0.00,0.00,0.00,0.00,0.00,0.00,0.00,0.00,0.00,0.00,0.00,0.00,0.00,1594.24,1620.63,1628.54,1629.82,1631.42,1636.86,1641.77,1644.52,1647.79,1649.83,1651.45,1652.00,1652.86,1654.96,1656.06,1657.07,1658.53,1659.40,1661.61,1663.48,1664.59,1664.88,1663.93,1664.90,1664.74,1666.02,1664.51,1665.31,1665.22,1668.09,1667.03,1667.77,1666.82,1667.80,1666.06,1665.13,1663.91,1661.99,1658.48,1654.64,1648.39,1638.87,0.00,0.00,0.00,0.00,0.00,0.00,0.00,0.00,0.00,0.00,0.00,0.00,0.00,0.00,0.00,0.00,0.00,0.00,0.00,0.00,0.00,0.00,0.00,0.00,0.00,0.00,0.00,0.00,0.00,0.00,0.00,0.00,0.00,0.00,0.00,0.00,0.00,0.00,0.00,0.00,1652.01,0.00,0.00,0.00,1667.92,1676.33,1679.47,1681.30,1682.19,1682.86,1685.95,1687.55,1685.26,1680.85,0.00,1673.20,1684.16,1688.86,1692.12,1694.45,1693.24,1692.79,1692.11,1694.66,1694.38,1694.54,1693.57,1695.22,1696.57,1698.20,1697.74,1697.18,1697.03,1698.04,1699.85,1702.13,1702.58,1703.18,1702.88,1704.58,1705.10,1705.77,1705.43,1705.65,1706.43,1706.92,1708.54,1709.56,1710.55,1710.90,1711.57,1712.54,1713.85,1715.47,1716.97,1715.87,1715.23,1716.01,1717.66,1718.59,1719.44,1721.10,1721.77,1722.28,1722.39,1724.11,1724.71,1725.94,1726.10,1727.51,1728.14,1729.49,1728.72,1729.84,1729.48,1730.42,1730.80,1731.30,1732.25,1733.64,1734.97,1735.60,1736.33,1734.36,1731.60,1731.32,1733.28,1738.83,1740.24,1739.84,1738.43,1739.45,1740.68,1740.97,1740.24,1741.21,1741.63,1743.58,1745.81,1746.78,1745.46,1745.67,1746.75,1747.83,1748.93,1749.18,1749.14,1746.90,1748.13,1749.47,1751.99,1751.55,1751.76,1751.80,1752.30,1753.20,1755.58,1756.13,1755.40,1753.39,1753.66,1754.81,1754.76,1754.71,1755.39,1756.81,1756.07,1757.36,1758.92,1762.30,1761.75,1762.63,1763.46,1764.33,1762.96,1764.01,1763.42,1764.84,1764.81,1766.12,1765.78,1766.89,1766.87,1767.92,1769.29,1772.16,1772.05,1768.53,1766.31,1766.49,1769.66,1770.35,1774.10,0.00,0.00,0.00,0.00,0.00,0.00,0.00,0.00,0.00,0.00,707.86,714.21,715.83,712.60,707.48,700.08,693.19,691.05,691.15,692.73,687.62,680.87,676.20,673.28,671.64,666.80,663.68,659.76,657.20,655.74,656.24,658.26,659.50,660.03,660.02,661.37,662.01,663.06,662.58,663.93,664.40,666.13,667.40,668.95,669.48,667.56,665.89,663.13,663.35,663.52,664.28,663.63,663.65,664.77,666.72,668.62,669.48,670.80,671.80,673.72,675.27,675.73,677.33,678.72,680.76,680.75,679.90,679.01,679.46,683.21,686.27,687.26,686.30,687.46,689.97,694.31,700.55,707.64,715.45,719.70,721.05,720.65,718.03,711.89,685.47,639.13,545.44,543.17,0.00,0.00,0.00,0.00,0.00,0.00,0.00,0.00,0.00,0.00,0.00,0.00,0.00,0.00,0.00,0.00,0.00,0.00,0.00,0.00,0.00,0.00,0.00,0.00,0.00,0.00,0.00,0.00,0.00,0.00,0.00,0.00,0.00,0.00,0.00,0.00,0.00,0.00,0.00,0.00,0.00,0.00,0.00,0.00,0.00,0.00,0.00,0.00,0.00,0.00,0.00,0.00,0.00,0.00,0.00,0.00,0.00,0.00,0.00,0.00,0.00,0.00,0.00,0.00,0.00,0.00,0.00,0.00,0.00,0.00,0.00,0.00,0.00,0.00,0.00,0.00,0.00,0.00,0.00,0.00,0.00,0.00,0.00,0.00,0.00,0.00,0.00,0.00,0.00,0.00,0.00,0.00,0.00,0.00,0.00,0.00,0.00,0.00,0.00,0.00,0.00,0.00,0.00,0.00,0.00,0.00,0.00,0.00,0.00,0.00,0.00,0.00,0.00,0.00,0.00,0.00,0.00,0.00,0.00,0.00,0.00,0.00,0.00,0.00,0.00,0.00,0.00,0.00,0.00,0.00,0.00,0.00,0.00,0.00,0.00,0.00,0.00,0.00,0.00,0.00,0.00,0.00,0.00,0.00,0.00,0.00
0.00,0.00,0.00,0.00,0.00,0.00,0.00,0.00,0.00,0.00,0.00,0.00,0.00,0.00,0.00,0.00,0.00,0.00,0.00,0.00,0.00,0.00,0.00,0.00,0.00,0.00,1583.84,1612.77,1623.48,1624.93,1628.07,1635.81,1641.64,1644.79,1645.50,1645.68,1648.01,1648.62,1651.24,1652.47,1654.02,1653.17,1655.64,1656.03,1658.99,1658.89,1660.93,1660.63,1662.31,1662.24,1663.66,1663.84,1665.08,1664.67,1665.21,1665.55,1666.38,1666.12,1666.81,1666.25,1665.16,1663.29,1662.31,1662.42,1660.91,1660.79,1658.70,1654.36,1646.61,1634.38,0.00,0.00,0.00,0.00,0.00,0.00,0.00,0.00,0.00,0.00,0.00,0.00,0.00,0.00,0.00,0.00,0.00,0.00,0.00,0.00,0.00,0.00,0.00,0.00,0.00,0.00,0.00,0.00,0.00,0.00,0.00,0.00,0.00,0.00,0.00,0.00,0.00,0.00,0.00,0.00,0.00,1662.21,1670.47,1676.42,1678.71,1679.72,1679.49,1679.84,1683.95,1686.43,1683.29,1678.73,1643.00,1676.67,1684.64,1688.76,1690.45,1691.41,1690.93,1691.15,1690.79,1692.44,1692.01,1693.27,1692.89,1695.22,1696.22,1696.95,1697.03,1696.99,1697.80,1697.37,1698.53,1700.22,1701.40,1701.32,1701.33,1702.13,1702.67,1703.55,1704.44,1704.54,1705.35,1705.09,1707.53,1707.27,1708.11,1707.90,1708.14,1709.71,1710.96,1713.14,1712.90,1712.28,1711.62,1713.71,1715.16,1716.34,1716.36,1717.29,1717.75,1719.08,1719.81,1721.96,1721.46,1722.13,1722.22,1724.13,1724.47,1725.59,1725.37,1726.52,1727.29,1727.61,1728.15,1728.43,1729.88,1731.00,1731.47,1733.25,1734.49,1734.09,1731.59,1731.09,1731.50,1736.26,1738.46,1739.88,1738.54,1739.65,1740.65,1741.20,1741.49,1742.08,1742.64,1737.62,1738.11,1739.62,1745.18,1743.12,1743.31,1741.87,1739.18,1739.90,1740.96,1747.40,1748.73,1748.57,1750.40,1750.88,1753.38,1753.93,1754.89,1756.47,1745.00,1746.30,1745.90,1756.89,1754.78,1755.45,1756.06,1755.87,1756.59,1757.56,1758.09,1755.72,1757.64,1759.29,1763.33,1763.41,1764.58,1764.60,1763.43,1764.11,1764.53,1764.60,1763.49,1764.68,1766.28,1767.92,1767.16,1767.99,1768.67,1770.78,1771.25,1769.41,1768.85,1768.94,1770.98,1771.42,1772.65,1776.55,0.00,0.00,0.00,0.00,0.00,0.00,0.00,0.00,0.00,698.54,711.75,714.11,711.84,707.06,700.30,692.81,689.84,689.37,692.53,690.19,685.43,678.71,675.40,673.82,670.64,666.56,662.23,659.54,659.30,659.56,660.98,660.97,661.56,661.18,662.68,662.43,663.77,663.16,665.71,666.65,668.09,668.20,668.14,668.20,666.78,664.55,662.24,661.40,662.23,663.01,663.35,664.20,664.77,665.93,666.24,666.61,668.42,669.60,672.70,673.30,673.94,674.52,676.88,679.26,680.60,680.10,679.87,680.02,682.36,684.56,684.42,683.70,686.06,690.44,695.80,700.87,705.96,713.39,716.47,717.89,716.51,714.01,702.60,658.28,596.61,571.53,549.25,522.73,0.00,0.00,0.00,0.00,0.00,0.00,0.00,0.00,0.00,0.00,0.00,0.00,0.00,0.00,0.00,0.00,0.00,0.00,0.00,0.00,0.00,0.00,0.00,0.00,0.00,0.00,0.00,0.00,0.00,0.00,0.00,0.00,0.00,0.00,0.00,0.00,0.00,0.00,0.00,0.00,0.00,0.00,0.00,0.00,0.00,0.00,0.00,0.00,0.00,0.00,0.00,0.00,0.00,0.00,0.00,0.00,0.00,0.00,0.00,0.00,0.00,0.00,0.00,0.00,0.00,0.00,0.00,0.00,0.00,0.00,0.00,0.00,0.00,0.00,0.00,0.00,0.00,0.00,0.00,0.00,0.00,0.00,0.00,0.00,0.00,0.00,0.00,0.00,0.00,0.00,0.00,0.00,0.00,0.00,0.00,0.00,0.00,0.00,0.00,0.00,0.00,0.00,0.00,0.00,0.00,0.00,0.00,0.00,0.00,0.00,0.00,0.00,0.00,0.00,0.00,0.00,0.00,0.00,0.00,0.00,0.00,0.00,0.00,0.00,0.00,0.00,0.00,0.00,0.00,0.00,0.00,0.00,0.00,0.00,0.00,0.00,0.00,0.00,0.00,0.00,0.00,0.00,0.00,0.00,0.00
0.00,0.00,0.00,0.00,0.00,0.00,0.00,0.00,0.00,0.00,0.00,0.00,0.00,0.00,0.00,0.00,0.00,0.00,0.00,0.00,0.00,0.00,0.00,0.00,0.00,0.00,1574.96,1610.47,1623.66,1626.20,1629.20,1637.47,1642.81,1644.70,1645.81,1646.78,1648.96,1650.02,1652.91,1654.63,1655.91,1655.85,1658.10,1659.18,1661.27,1661.51,1662.75,1663.19,1664.79,1664.84,1665.17,1664.83,1665.13,1665.50,1666.09,1666.38,1666.33,1666.66,1666.80,1667.60,1666.68,1666.85,1666.03,1666.51,1665.02,1665.26,1663.94,1663.39,1660.12,1655.01,1646.32,1634.60,0.00,0.00,0.00,0.00,0.00,0.00,0.00,0.00,0.00,0.00,0.00,0.00,0.00,0.00,0.00,0.00,0.00,0.00,0.00,0.00,0.00,0.00,0.00,0.00,0.00,0.00,0.00,0.00,0.00,0.00,0.00,0.00,0.00,0.00,0.00,0.00,0.00,0.00,1653.01,1667.46,1673.48,1677.92,1679.16,1680.66,1680.11,1681.25,1685.22,1686.82,1681.40,1673.94,0.00,1679.33,1685.06,1688.35,1690.36,1692.25,1692.98,1692.82,1691.60,1692.51,1692.84,1693.85,1693.81,1696.19,1696.78,1696.83,1696.92,1698.59,1699.83,1698.94,1699.06,1699.86,1700.98,1701.79,1703.13,1704.59,1704.72,1706.15,1707.23,1707.75,1707.39,1707.09,1708.70,1710.01,1710.68,1710.93,1709.88,1710.87,1710.99,1712.77,1712.46,1712.83,1713.22,1715.66,1716.97,1718.12,1717.55,1718.31,1717.92,1718.93,1719.25,1721.78,1722.48,1723.03,1722.84,1724.66,1725.29,1726.41,1726.15,1727.16,1726.98,1726.80,1727.07,1727.85,1729.09,1730.38,1731.91,1733.57,1734.22,1733.50,1734.15,1735.21,1736.16,1737.13,1737.71,1738.76,1738.81,1739.30,1740.35,1741.17,1742.19,1743.82,1744.74,1740.35,1739.02,1740.96,1747.15,1745.90,1745.11,1744.36,1741.47,1742.17,1742.64,1748.85,1749.86,1749.71,1751.04,1751.42,1754.00,1754.31,1755.85,1759.30,1748.77,1749.62,1749.81,1762.24,1759.44,1760.24,1759.44,1758.95,1759.45,1761.25,1761.93,1758.31,1759.99,1761.48,1767.22,1766.93,1768.54,1769.32,1768.03,1769.11,1769.27,1770.24,1769.34,1769.77,1770.91,1771.60,1772.02,1772.54,1773.35,1774.18,1775.55,1776.34,1776.07,1775.69,1775.49,1777.64,1778.73,1782.20,0.00,0.00,0.00,0.00,0.00,0.00,0.00,0.00,504.06,0.00,711.90,716.13,715.26,712.39,706.02,698.88,694.94,693.75,696.53,697.85,696.00,688.47,683.05,681.66,680.23,676.88,672.41,669.44,668.26,669.14,668.40,668.51,667.07,668.00,669.11,669.01,669.19,668.35,671.20,673.26,673.92,672.83,671.29,672.80,671.83,670.22,666.97,666.10,666.01,666.58,666.30,668.02,668.62,669.80,670.15,670.97,673.27,674.00,675.87,676.24,677.84,678.71,679.91,681.93,683.45,685.00,685.13,685.69,686.38,687.66,688.35,687.69,689.40,692.95,700.13,705.84,712.28,717.84,719.83,719.67,718.23,714.76,692.04,616.65,593.70,569.06,552.64,549.29,510.00,0.00,0.00,0.00,0.00,0.00,0.00,0.00,0.00,0.00,0.00,0.00,0.00,0.00,0.00,0.00,0.00,0.00,0.00,0.00,0.00,0.00,0.00,0.00,0.00,0.00,0.00,0.00,0.00,0.00,0.00,0.00,0.00,0.00,0.00,0.00,0.00,0.00,0.00,0.00,0.00,0.00,0.00,0.00,0.00,0.00,0.00,0.00,0.00,0.00,0.00,0.00,0.00,0.00,0.00,0.00,0.00,0.00,0.00,0.00,0.00,0.00,0.00,0.00,0.00,0.00,0.00,0.00,0.00,0.00,0.00,0.00,0.00,0.00,0.00,0.00,0.00,0.00,0.00,0.00,0.00,0.00,0.00,0.00,0.00,0.00,0.00,0.00,0.00,0.00,0.00,0.00,0.00,0.00,0.00,0.00,0.00,0.00,0.00,0.00,0.00,0.00,0.00,0.00,0.00,0.00,0.00,0.00,0.00,0.00,0.00,0.00,0.00,0.00,0.00,0.00,0.00,0.00,0.00,0.00,0.00,0.00,0.00,0.00,0.00,0.00,0.00,0.00,0.00,0.00,0.00,0.00,0.00,0.00,0.00,0.00,0.00,0.00,0.00,0.00,0.00,0.00,0.00,0.00,0.00
0.00,0.00,0.00,0.00,0.00,0.00,0.00,0.00,0.00,0.00,0.00,0.00,0.00,0.00,0.00,0.00,0.00,0.00,0.00,0.00,0.00,0.00,0.00,0.00,0.00,0.00,0.00,1604.42,1619.95,1623.70,1628.64,1635.72,1639.42,1640.01,1642.00,1644.68,1647.43,1649.00,1651.20,1653.06,1654.31,1655.13,1656.09,1657.77,1658.90,1659.42,1659.84,1661.23,1662.98,1663.35,1665.02,1665.64,1667.06,1666.47,1665.93,1663.60,1663.97,1664.05,1665.22,1664.09,1664.73,1665.58,1666.51,1665.38,1663.88,1664.27,1664.46,1664.42,1662.04,1660.11,1657.43,1652.97,1645.38,0.00,0.00,0.00,0.00,0.00,0.00,0.00,0.00,0.00,0.00,0.00,0.00,0.00,0.00,0.00,0.00,0.00,0.00,0.00,0.00,0.00,0.00,0.00,0.00,0.00,0.00,0.00,0.00,0.00,0.00,0.00,0.00,0.00,0.00,0.00,0.00,0.00,0.00,1659.78,1668.05,1672.77,1674.59,1676.93,1677.14,1677.80,1680.46,1682.39,1677.65,1667.94,0.00,1679.38,1684.65,1686.95,1688.34,1689.09,1690.07,1689.75,1689.17,1689.35,1691.28,1692.29,1693.39,1693.75,1693.22,1692.66,1693.49,1695.46,1697.42,1696.93,1697.22,1697.24,1699.21,1700.19,1701.49,1702.15,1703.64,1704.68,1705.61,1704.30,1704.80,1705.22,1707.80,1708.00,1708.93,1709.33,1708.92,1708.94,1709.53,1711.41,1712.25,1712.39,1713.37,1714.53,1715.64,1716.27,1715.93,1716.39,1716.58,1717.18,1717.46,1718.96,1721.17,1721.85,1722.15,1722.13,1723.04,1724.26,1726.36,1727.57,1726.90,1725.60,1725.58,1726.40,1726.97,1727.81,1729.76,1731.36,1731.84,1731.33,1731.95,1733.69,1734.25,1733.68,1733.39,1734.97,1736.36,1737.16,1737.27,1738.28,1738.97,1740.33,1740.80,1736.59,1735.99,1738.35,1744.85,1743.12,1742.43,1741.26,1738.94,1739.52,1740.38,1746.93,1748.19,1747.82,1749.44,1748.78,1750.96,1751.69,1753.30,1756.87,1747.41,1748.93,1748.21,1759.32,1756.86,1757.81,1757.25,1757.47,1757.99,1759.96,1761.04,1756.82,1759.17,1760.36,1766.49,1765.58,1767.18,1769.02,1768.60,1769.26,1769.57,1770.04,1769.78,1769.53,1770.86,1771.70,1772.58,1773.35,1774.02,1775.00,1777.64,1779.60,1778.92,1776.99,1777.02,1780.60,1781.77,1783.90,0.00,0.00,0.00,0.00,0.00,0.00,0.00,0.00,508.14,0.00,706.34,713.87,714.05,711.14,705.07,698.72,694.89,692.61,694.62,696.47,696.33,690.00,684.76,683.62,682.95,679.39,675.58,672.97,672.42,672.96,671.75,670.76,669.70,670.09,671.47,670.39,670.77,669.11,671.24,672.19,672.09,669.97,668.72,670.08,670.62,669.07,666.38,665.15,664.91,665.80,665.10,666.03,666.93,668.22,669.53,670.49,672.98,672.78,674.42,674.71,677.54,677.81,679.06,679.67,681.65,683.67,684.87,686.97,687.14,687.53,686.51,687.45,689.26,693.19,699.59,705.79,712.81,717.68,718.75,718.44,716.92,713.12,677.88,605.88,573.82,569.04,558.61,536.60,577.06,0.00,0.00,0.00,0.00,0.00,0.00,0.00,0.00,0.00,0.00,0.00,0.00,0.00,0.00,0.00,0.00,0.00,0.00,0.00,0.00,0.00,0.00,0.00,0.00,0.00,0.00,0.00,0.00,0.00,0.00,0.00,0.00,0.00,0.00,0.00,0.00,0.00,0.00,0.00,0.00,0.00,0.00,0.00,0.00,0.00,0.00,0.00,0.00,0.00,0.00,0.00,0.00,0.00,0.00,0.00,0.00,0.00,0.00,0.00,0.00,0.00,0.00,0.00,0.00,0.00,0.00,0.00,0.00,0.00,0.00,0.00,0.00,0.00,0.00,0.00,0.00,0.00,0.00,0.00,0.00,0.00,0.00,0.00,0.00,0.00,0.00,0.00,0.00,0.00,0.00,0.00,0.00,0.00,0.00,0.00,0.00,0.00,0.00,0.00,0.00,0.00,0.00,0.00,0.00,0.00,0.00,0.00,0.00,0.00,0.00,0.00,0.00,0.00,0.00,0.00,0.00,0.00,0.00,0.00,0.00,0.00,0.00,0.00,0.00,0.00,0.00,0.00,0.00,0.00,0.00,0.00,0.00,0.00,0.00,0.00,0.00,0.00,0.00,0.00,0.00,0.00,0.00,0.00,0.00
0.00,0.00,0.00,0.00,0.00,0.00,0.00,0.00,0.00,0.00,0.00,0.00,0.00,0.00,0.00,0.00,0.00,0.00,0.00,0.00,0.00,0.00,0.00,0.00,0.00,0.00,0.00,1598.15,1618.85,1627.10,1630.29,1636.62,1638.39,1640.89,1643.08,1647.90,1649.53,1652.94,1654.54,1656.04,1656.11,1657.66,1658.90,1660.76,1660.08,1661.62,1662.51,1664.47,1664.47,1665.78,1667.44,1668.60,1668.55,1667.86,1666.06,1663.83,1662.89,1665.05,1666.23,1666.52,1666.21,1667.99,1669.93,1668.54,1666.24,1666.46,1667.65,1668.61,1666.01,1665.06,1664.04,1662.72,1658.82,1651.31,1640.23,0.00,0.00,0.00,0.00,0.00,0.00,0.00,0.00,0.00,0.00,0.00,0.00,0.00,0.00,0.00,0.00,0.00,0.00,0.00,0.00,0.00,0.00,0.00,0.00,0.00,0.00,0.00,0.00,0.00,0.00,0.00,0.00,0.00,0.00,0.00,0.00,0.00,1655.41,1666.28,1672.24,1675.51,1675.89,1677.16,1678.50,1678.66,1674.95,0.00,1649.15,1678.37,1683.61,1685.96,1688.13,1689.61,1690.84,1691.71,1690.94,1691.64,1691.92,1693.01,1693.83,1693.77,1692.93,1693.08,1694.48,1696.55,1697.73,1697.87,1698.90,1699.29,1701.22,1702.35,1702.79,1704.02,1705.28,1706.73,1707.24,1706.66,1706.41,1706.80,1708.09,1709.54,1710.37,1710.69,1710.86,1710.18,1711.18,1712.88,1714.31,1715.08,1715.44,1716.10,1716.39,1716.46,1716.45,1717.22,1718.19,1718.96,1718.86,1719.06,1721.15,1722.99,1723.88,1723.57,1723.91,1725.22,1727.76,1728.73,1728.78,1728.66,1729.19,1729.21,1728.88,1730.18,1732.55,1733.08,1732.67,1731.64,1732.24,1735.05,1736.43,1736.37,1734.86,1736.16,1737.66,1738.25,1738.35,1739.23,1739.87,1740.37,1739.93,1740.85,1741.91,1743.94,1745.97,1746.29,1746.84,1746.98,1748.45,1749.22,1748.69,1747.06,1747.74,1749.18,1751.19,1750.72,1750.83,1751.21,1753.26,1755.87,1758.86,1759.04,1759.24,1758.08,1757.72,1757.61,1757.06,1757.62,1757.89,1759.93,1763.31,1763.25,1764.96,1763.83,1764.60,1764.54,1766.71,1769.93,1769.52,1769.35,1768.51,1770.30,1771.18,1772.02,1772.42,1772.59,1773.90,1775.06,1775.79,1776.24,1778.36,1780.42,1779.82,1778.03,1780.86,1786.50,1788.62,1788.46,0.00,0.00,0.00,0.00,0.00,0.00,0.00,0.00,0.00,0.00,702.97,716.87,718.17,715.93,709.86,703.95,699.39,696.16,696.08,697.11,696.28,692.55,688.64,689.11,687.91,685.13,681.71,679.57,676.42,676.37,674.52,674.85,672.62,672.01,672.38,671.86,671.17,669.88,671.05,673.29,673.72,672.90,671.43,671.35,670.88,672.33,672.05,671.21,669.23,669.46,668.27,669.00,669.27,670.82,672.56,673.99,675.55,676.49,677.38,679.47,681.84,682.74,682.83,683.10,685.52,688.13,688.67,689.67,689.85,691.14,691.29,692.00,693.49,696.76,703.77,710.35,718.06,721.23,722.22,721.94,720.95,716.02,674.15,584.62,574.35,567.87,558.16,558.67,557.78,516.89,0.00,0.00,0.00,0.00,0.00,0.00,0.00,0.00,0.00,0.00,0.00,0.00,0.00,0.00,0.00,0.00,0.00,0.00,0.00,0.00,0.00,0.00,0.00,0.00,0.00,0.00,0.00,0.00,0.00,0.00,0.00,0.00,0.00,0.00,0.00,0.00,0.00,0.00,0.00,0.00,0.00,0.00,0.00,0.00,0.00,0.00,0.00,0.00,0.00,0.00,0.00,0.00,0.00,0.00,0.00,0.00,0.00,0.00,0.00,0.00,0.00,0.00,0.00,0.00,0.00,0.00,0.00,0.00,0.00,0.00,0.00,0.00,0.00,0.00,0.00,0.00,0.00,0.00,0.00,0.00,0.00,0.00,0.00,0.00,0.00,0.00,0.00,0.00,0.00,0.00,0.00,0.00,0.00,0.00,0.00,0.00,0.00,0.00,0.00,0.00,0.00,0.00,0.00,0.00,0.00,0.00,0.00,0.00,0.00,0.00,0.00,0.00,0.00,0.00,0.00,0.00,0.00,0.00,0.00,0.00,0.00,0.00,0.00,0.00,0.00,0.00,0.00,0.00,0.00,0.00,0.00,0.00,0.00,0.00,0.00,0.00,0.00,0.00,0.00,0.00,0.00,0.00,0.00
0.00,0.00,0.00,0.00,0.00,0.00,0.00,0.00,0.00,0.00,0.00,0.00,0.00,0.00,0.00,0.00,0.00,0.00,0.00,0.00,0.00,0.00,0.00,0.00,0.00,0.00,0.00,1585.94,1613.45,1622.91,1625.13,1630.54,1632.76,1636.07,1640.19,1646.53,1649.56,1651.79,1652.57,1652.13,1652.81,1654.66,1657.14,1657.34,1656.59,1658.52,1661.73,1663.77,1663.92,1664.56,1666.20,1667.14,1668.11,1666.53,1664.11,1661.09,1661.66,1663.64,1664.82,1663.03,1662.73,1663.28,1665.73,1665.54,1665.28,1665.86,1666.34,1666.70,1664.87,1664.46,1664.30,1663.55,1660.99,1657.65,1654.99,1650.00,1640.94,0.00,0.00,0.00,0.00,0.00,0.00,0.00,0.00,0.00,0.00,0.00,0.00,0.00,0.00,0.00,0.00,0.00,0.00,0.00,0.00,0.00,0.00,0.00,0.00,0.00,0.00,0.00,0.00,0.00,0.00,0.00,0.00,0.00,0.00,0.00,0.00,0.00,1660.72,1663.30,1665.76,1666.74,1666.29,1664.60,1662.00,0.00,1665.58,1675.43,1681.70,1684.67,1686.43,1686.94,1687.80,1689.41,1689.65,1690.67,1690.73,1691.93,1692.82,1691.91,1690.90,1691.26,1694.31,1695.68,1697.01,1696.02,1697.17,1697.18,1700.34,1701.35,1701.70,1701.48,1702.70,1703.83,1705.03,1704.81,1704.94,1705.71,1707.68,1708.44,1709.13,1708.52,1709.00,1709.15,1710.37,1711.73,1713.03,1713.30,1713.79,1713.60,1713.91,1713.67,1714.46,1715.76,1717.52,1717.93,1718.85,1718.48,1719.25,1720.91,1721.54,1721.43,1720.58,1722.12,1725.25,1726.19,1727.39,1727.67,1728.85,1728.41,1727.87,1728.40,1729.15,1729.01,1728.96,1729.62,1731.02,1733.16,1733.41,1733.53,1733.09,1734.64,1735.61,1736.31,1736.86,1738.30,1738.66,1738.58,1738.07,1738.25,1739.42,1740.63,1743.07,1743.53,1744.64,1744.47,1744.80,1744.92,1745.09,1745.32,1746.36,1748.37,1750.62,1750.36,1750.06,1749.05,1750.71,1751.99,1753.11,1752.45,1753.22,1753.83,1754.00,1754.00,1754.97,1755.41,1756.53,1757.61,1760.24,1759.34,1761.38,1761.39,1761.85,1761.41,1763.71,1766.99,1767.22,1766.74,1766.17,1768.67,1770.81,1773.87,1775.18,1776.23,1774.40,1774.18,1773.85,1775.29,1776.58,1776.55,1775.70,1774.77,1778.14,1783.12,1785.29,1786.49,1789.47,0.00,0.00,0.00,0.00,0.00,0.00,0.00,0.00,527.32,0.00,714.64,716.69,713.94,707.10,700.87,696.40,693.29,692.18,691.22,688.62,685.52,683.41,683.69,681.04,678.69,676.77,675.96,674.18,672.91,671.29,670.18,669.23,667.96,667.62,666.89,667.34,667.11,667.57,668.04,667.77,667.61,667.31,666.28,663.98,665.33,667.49,667.62,666.19,667.14,667.55,668.01,667.37,668.25,669.57,671.89,674.63,676.41,677.06,677.75,679.16,679.18,680.84,682.17,685.75,687.29,687.24,687.07,687.45,689.75,690.66,692.39,693.82,697.83,703.16,709.25,715.22,718.32,718.59,719.67,718.71,714.75,671.50,590.43,570.12,567.82,559.30,556.11,550.65,530.16,0.00,0.00,0.00,0.00,0.00,0.00,0.00,0.00,0.00,0.00,0.00,0.00,0.00,0.00,0.00,0.00,0.00,0.00,0.00,0.00,0.00,0.00,0.00,0.00,0.00,0.00,0.00,0.00,0.00,0.00,0.00,0.00,0.00,0.00,0.00,0.00,0.00,0.00,0.00,0.00,0.00,0.00,0.00,0.00,0.00,0.00,0.00,0.00,0.00,0.00,0.00,0.00,0.00,0.00,0.00,0.00,0.00,0.00,0.00,0.00,0.00,0.00,0.00,0.00,0.00,0.00,0.00,0.00,0.00,0.00,0.00,0.00,0.00,0.00,0.00,0.00,0.00,0.00,0.00,0.00,0.00,0.00,0.00,0.00,0.00,0.00,0.00,0.00,0.00,0.00,0.00,0.00,0.00,0.00,0.00,0.00,0.00,0.00,0.00,0.00,0.00,0.00,0.00,0.00,0.00,0.00,0.00,0.00,0.00,0.00,0.00,0.00,0.00,0.00,0.00,0.00,0.00,0.00,0.00,0.00,0.00,0.00,0.00,0.00,0.00,0.00,0.00,0.00,0.00,0.00,0.00,0.00,0.00,0.00,0.00,0.00,0.00,0.00,0.00,0.00,0.00,0.00,0.00
0.00,0.00,0.00,0.00,0.00,0.00,0.00,0.00,0.00,0.00,0.00,0.00,0.00,0.00,0.00,0.00,0.00,0.00,0.00,0.00,0.00,0.00,0.00,0.00,0.00,0.00,0.00,0.00,1611.33,1624.05,1624.61,1627.69,1629.12,1633.42,1640.10,1647.88,1651.11,1653.10,1654.02,1652.47,1652.70,1654.96,1658.72,1658.98,1659.10,1660.98,1664.18,1664.52,1664.76,1665.34,1666.04,1666.62,1666.65,1666.21,1664.21,1662.79,1663.38,1665.56,1666.71,1665.81,1665.03,1664.37,1665.14,1666.09,1666.75,1667.46,1666.27,1667.02,1667.61,1667.47,1667.16,1665.36,1663.61,1662.60,1662.79,1662.19,1657.01,1648.26,0.00,0.00,0.00,0.00,0.00,0.00,0.00,0.00,0.00,0.00,0.00,0.00,0.00,0.00,0.00,0.00,0.00,0.00,0.00,0.00,0.00,0.00,0.00,0.00,0.00,0.00,0.00,0.00,0.00,0.00,0.00,0.00,0.00,0.00,0.00,0.00,0.00,1644.61,1647.22,1645.56,1644.36,1644.27,1636.34,0.00,1655.26,1669.11,1677.83,1684.14,1686.46,1687.82,1687.78,1690.09,1690.94,1692.93,1692.14,1692.32,1692.49,1692.28,1692.73,1693.35,1696.28,1696.93,1697.98,1697.52,1698.55,1699.10,1701.11,1701.55,1701.67,1702.38,1702.97,1704.65,1705.83,1707.24,1706.44,1707.03,1708.37,1710.12,1710.57,1709.33,1709.02,1709.83,1710.88,1711.76,1712.27,1713.55,1714.59,1714.46,1715.04,1714.47,1715.32,1716.39,1718.15,1719.52,1720.43,1721.01,1721.07,1723.29,1723.01,1722.76,1721.23,1723.68,1726.55,1727.90,1728.15,1728.38,1729.06,1729.58,1729.50,1730.37,1730.01,1730.09,1729.69,1731.68,1733.28,1735.57,1734.74,1734.87,1734.20,1735.52,1735.63,1736.04,1737.80,1739.64,1740.35,1740.00,1740.07,1740.88,1741.73,1741.51,1743.57,1743.87,1745.22,1745.52,1745.95,1748.01,1748.97,1749.55,1748.92,1749.50,1751.30,1751.63,1751.01,1750.15,1751.61,1752.75,1753.16,1752.49,1754.64,1756.86,1757.74,1757.47,1759.45,1759.36,1761.30,1761.86,1765.51,1762.64,1764.94,1764.97,1765.86,1764.83,1766.06,1767.87,1768.32,1768.02,1767.29,0.00,0.00,0.00,0.00,1797.99,0.00,0.00,0.00,1776.45,1777.03,1777.73,1776.66,1778.36,1783.49,1790.43,1796.18,1798.57,1801.25,0.00,0.00,0.00,0.00,0.00,0.00,0.00,0.00,513.88,0.00,714.33,719.01,717.74,712.05,704.76,700.61,696.74,694.08,690.70,687.23,684.44,682.87,683.72,682.29,680.83,677.08,675.30,673.61,674.15,672.20,671.61,670.09,671.02,670.36,670.61,669.74,669.89,669.65,670.53,669.80,669.67,669.65,669.07,665.89,666.55,669.02,671.17,669.40,669.96,670.28,671.37,670.74,672.09,672.95,675.40,678.15,680.02,681.13,681.92,684.21,684.39,685.86,687.65,689.94,691.46,691.09,691.29,689.87,691.62,693.67,696.74,698.95,703.39,709.35,713.94,718.11,720.04,721.45,722.09,721.31,715.18,668.45,595.00,574.99,546.93,559.48,562.35,561.17,553.49,512.73,0.00,0.00,0.00,0.00,0.00,0.00,0.00,0.00,0.00,0.00,0.00,0.00,0.00,0.00,0.00,0.00,0.00,0.00,0.00,0.00,0.00,0.00,0.00,0.00,0.00,0.00,0.00,0.00,0.00,0.00,0.00,0.00,0.00,0.00,0.00,0.00,0.00,0.00,0.00,0.00,0.00,0.00,0.00,0.00,0.00,0.00,0.00,0.00,0.00,0.00,0.00,0.00,0.00,0.00,0.00,0.00,0.00,0.00,0.00,0.00,0.00,0.00,0.00,0.00,0.00,0.00,0.00,0.00,0.00,0.00,0.00,0.00,0.00,0.00,0.00,0.00,0.00,0.00,0.00,0.00,0.00,0.00,0.00,0.00,0.00,0.00,0.00,0.00,0.00,0.00,0.00,0.00,0.00,0.00,0.00,0.00,0.00,0.00,0.00,0.00,0.00,0.00,0.00,0.00,0.00,0.00,0.00,0.00,0.00,0.00,0.00,0.00,0.00,0.00,0.00,0.00,0.00,0.00,0.00,0.00,0.00,0.00,0.00,0.00,0.00,0.00,0.00,0.00,0.00,0.00,0.00,0.00,0.00,0.00,0.00,0.00,0.00,0.00,0.00,0.00,0.00,0.00
0.00,0.00,0.00,0.00,0.00,0.00,0.00,0.00,0.00,0.00,0.00,0.00,0.00,0.00,0.00,0.00,0.00,0.00,0.00,0.00,0.00,0.00,0.00,0.00,0.00,0.00,0.00,0.00,1606.33,1618.55,1621.86,1622.87,1625.43,1627.72,1638.03,1645.92,1650.07,1650.85,1651.60,1650.00,1650.75,1652.67,1655.98,1655.57,1656.78,1657.57,1660.45,1660.45,1662.35,1662.67,1662.52,1662.81,1663.40,1663.46,1662.85,1662.52,1664.12,1664.76,1665.27,1664.22,1664.14,1663.02,1662.90,1663.05,1665.66,1665.38,1664.24,1664.10,1667.26,1668.51,1667.51,1664.09,1662.24,1662.06,1663.05,1662.66,1660.27,1657.18,1651.90,1643.53,0.00,0.00,0.00,0.00,0.00,0.00,0.00,0.00,0.00,0.00,0.00,0.00,0.00,0.00,0.00,0.00,0.00,0.00,0.00,0.00,0.00,0.00,0.00,0.00,0.00,0.00,0.00,0.00,0.00,0.00,0.00,0.00,0.00,0.00,0.00,0.00,0.00,0.00,0.00,0.00,0.00,0.00,0.00,1655.17,1671.35,1680.72,1683.31,1685.00,1685.19,1686.93,1688.71,1689.95,1689.96,1688.73,1690.16,1689.97,1691.87,1691.44,1693.96,1693.78,1695.00,1695.17,1696.86,1697.40,1698.43,1698.40,1699.11,1699.64,1700.48,1700.81,1701.55,1701.92,1703.25,1704.05,1706.13,1706.60,1707.57,1707.48,1707.61,1708.15,1708.54,1709.07,1710.83,1711.59,1713.38,1711.53,1712.80,1712.49,1713.91,1714.86,1716.66,1717.88,1718.35,1719.95,1720.82,1721.86,1720.08,1719.90,1719.40,1722.64,1725.47,1727.55,1726.65,1726.02,1726.21,1727.34,1727.32,1727.36,1727.23,1727.74,1728.00,1729.21,1730.23,1732.91,1733.38,1734.04,1733.12,1733.51,1733.75,1733.98,1735.49,1736.84,1737.88,1738.51,1739.01,1739.62,1740.51,1740.91,1741.99,1741.77,1742.30,1743.49,1744.57,1746.66,1747.41,1747.84,1747.06,1748.20,1749.34,1750.38,1750.02,1749.80,1750.00,1750.20,1750.27,1750.91,1753.08,1756.17,1757.66,1757.90,1762.45,1764.68,1772.93,1780.47,1783.49,1780.31,1782.14,1785.77,1793.40,0.00,0.00,678.69,690.07,699.03,0.00,0.00,0.00,0.00,721.46,721.03,720.12,0.00,0.00,0.00,712.68,710.63,710.79,695.53,0.00,0.00,0.00,0.00,0.00,0.00,0.00,0.00,513.49,504.42,0.00,0.00,0.00,502.27,0.00,705.62,716.13,716.26,710.82,703.16,699.47,695.26,692.62,688.16,686.12,682.13,681.05,680.12,679.89,677.67,672.54,670.74,669.85,670.89,669.12,669.05,668.46,669.36,667.96,669.25,669.35,670.47,668.01,667.19,664.84,665.11,666.01,666.34,663.79,662.75,664.95,667.66,667.90,667.79,667.33,667.45,667.60,669.90,671.05,673.61,676.78,677.84,678.70,678.67,682.60,683.57,684.59,685.79,686.79,688.19,687.86,689.21,688.19,688.77,691.64,695.86,699.73,703.38,708.39,712.22,715.31,717.78,719.77,721.18,720.71,713.68,669.34,591.34,574.19,578.23,562.61,574.23,586.34,567.13,506.78,0.00,0.00,0.00,0.00,0.00,0.00,0.00,0.00,0.00,0.00,0.00,0.00,0.00,0.00,0.00,0.00,0.00,0.00,0.00,0.00,0.00,0.00,0.00,0.00,0.00,0.00,0.00,0.00,0.00,0.00,0.00,0.00,0.00,0.00,0.00,0.00,0.00,0.00,0.00,0.00,0.00,0.00,0.00,0.00,0.00,0.00,0.00,0.00,0.00,0.00,0.00,0.00,0.00,0.00,0.00,0.00,0.00,0.00,0.00,0.00,0.00,0.00,0.00,0.00,0.00,0.00,0.00,0.00,0.00,0.00,0.00,0.00,0.00,0.00,0.00,0.00,0.00,0.00,0.00,0.00,0.00,0.00,0.00,0.00,0.00,0.00,0.00,0.00,0.00,0.00,0.00,0.00,0.00,0.00,0.00,0.00,0.00,0.00,0.00,0.00,0.00,0.00,0.00,0.00,0.00,0.00,0.00,0.00,0.00,0.00,0.00,0.00,0.00,0.00,0.00,0.00,0.00,0.00,0.00,0.00,0.00,0.00,0.00,0.00,0.00,0.00,0.00,0.00,0.00,0.00,0.00,0.00,0.00,0.00,0.00,0.00,0.00,0.00,0.00,0.00,0.00,0.00
0.00,0.00,0.00,0.00,0.00,0.00,0.00,0.00,0.00,0.00,0.00,0.00,0.00,0.00,0.00,0.00,0.00,0.00,0.00,0.00,0.00,0.00,0.00,0.00,0.00,0.00,0.00,0.00,1594.12,1618.39,1626.68,1628.24,1628.36,1631.02,1639.88,1646.59,1648.51,1650.76,1651.47,1652.80,1652.40,1655.48,1657.39,1659.12,1659.16,1658.98,1659.31,1659.30,1661.86,1661.49,1661.56,1661.92,1663.80,1664.39,1664.69,1666.01,1666.65,1666.34,1665.87,1665.47,1665.80,1664.47,1664.83,1664.91,1666.86,1667.03,1666.51,1666.52,1668.03,1668.44,1667.62,1664.81,1664.72,1665.17,1665.44,1663.98,1661.82,1661.55,1659.69,1657.40,1651.81,1643.11,0.00,0.00,0.00,0.00,0.00,0.00,0.00,0.00,0.00,0.00,0.00,0.00,0.00,0.00,0.00,0.00,0.00,0.00,0.00,0.00,0.00,0.00,0.00,0.00,0.00,0.00,0.00,0.00,0.00,0.00,0.00,0.00,0.00,0.00,0.00,0.00,0.00,0.00,1344.41,1346.44,0.00,0.00,0.00,1674.82,1679.82,1683.88,1685.90,1687.59,1688.71,1689.57,1688.44,1687.44,1688.76,1690.73,1693.23,1693.19,1694.30,1694.09,1694.53,1695.95,1697.99,1699.40,1699.37,1698.88,1699.34,1700.60,1701.73,1702.40,1702.51,1702.76,1704.48,1704.91,1706.49,1706.38,1707.77,1708.46,1709.10,1709.28,1709.59,1710.00,1712.06,1712.86,1714.62,1712.88,1714.03,1713.86,1715.26,1715.48,1716.58,1717.36,1716.91,1718.80,1720.12,1721.89,1720.84,1720.98,1721.25,1723.31,1726.07,1728.94,1728.78,1728.02,1726.78,1728.14,1728.42,1728.59,1728.52,1729.38,1730.04,1731.00,1731.25,1733.32,1734.18,1735.45,1734.28,1734.95,1735.42,1736.77,1737.27,1738.10,1738.66,1740.05,1740.76,1741.91,1742.42,1743.36,1744.61,1743.77,1743.48,1743.33,1744.84,1746.73,1748.04,1748.73,1748.64,1749.33,1749.94,1751.25,1752.17,1754.01,1754.34,1754.37,1755.59,1757.32,1762.33,1768.36,1777.73,1785.99,0.00,0.00,0.00,0.00,0.00,0.00,0.00,661.86,704.41,717.61,721.03,723.27,722.21,724.15,724.18,725.72,726.65,729.64,730.75,730.42,728.19,728.90,730.12,730.44,730.82,730.09,731.38,732.09,733.64,736.82,739.72,742.02,741.68,737.81,736.37,733.18,0.00,0.00,0.00,0.00,504.35,507.25,0.00,0.00,717.31,719.43,717.38,709.27,703.96,698.15,695.02,691.01,688.79,685.43,683.26,681.87,680.77,679.91,674.53,672.53,670.75,671.57,670.27,669.91,669.61,670.22,669.65,671.47,670.74,672.07,669.01,669.19,667.92,668.01,667.60,667.38,666.71,667.19,669.28,670.46,669.53,668.51,668.51,669.71,670.16,672.91,674.34,676.54,678.71,680.07,681.33,681.89,685.96,688.54,689.29,689.27,689.18,690.87,691.58,693.98,693.30,692.80,694.97,699.84,705.85,708.33,713.02,716.67,719.95,721.75,723.55,725.39,724.80,716.93,675.09,581.75,580.42,580.82,584.67,592.83,588.93,581.75,536.01,0.00,0.00,500.00,0.00,0.00,0.00,0.00,0.00,0.00,0.00,0.00,0.00,0.00,0.00,0.00,0.00,0.00,0.00,0.00,0.00,0.00,0.00,0.00,0.00,0.00,0.00,0.00,0.00,0.00,0.00,0.00,0.00,0.00,0.00,0.00,0.00,0.00,0.00,0.00,0.00,0.00,0.00,0.00,0.00,0.00,0.00,0.00,0.00,0.00,0.00,0.00,0.00,0.00,0.00,0.00,0.00,0.00,0.00,0.00,0.00,0.00,0.00,0.00,0.00,0.00,0.00,0.00,0.00,0.00,0.00,0.00,0.00,0.00,0.00,0.00,0.00,0.00,0.00,0.00,0.00,0.00,0.00,0.00,0.00,0.00,0.00,0.00,0.00,0.00,0.00,0.00,0.00,0.00,0.00,0.00,0.00,0.00,0.00,0.00,0.00,0.00,0.00,0.00,0.00,0.00,0.00,0.00,0.00,0.00,0.00,0.00,0.00,0.00,0.00,0.00,0.00,0.00,0.00,0.00,0.00,0.00,0.00,0.00,0.00,0.00,0.00,0.00,0.00,0.00,0.00,0.00,0.00,0.00,0.00,0.00,0.00,0.00,0.00,0.00,0.00,0.00,0.00
