0.00,0.00,0.00,0.00,0.00,0.00,0.00,0.00,0.00,0.00,0.00,0.00,0.00,0.00,0.00,0.00,0.00,0.00,0.00,0.00,0.00,0.00,0.00,0.00,0.00,0.00,0.00,0.00,1592.82,1615.22,1624.93,1627.83,1627.26,1629.07,1637.13,1644.56,1648.11,1648.99,1650.89,1651.59,1652.70,1654.26,1658.01,1660.23,1662.10,1662.00,1663.33,1662.55,1663.68,1664.25,1664.05,1664.70,1665.51,1667.39,1666.01,1666.07,1664.96,1664.38,1663.71,1663.75,1665.77,1666.54,1666.30,1664.34,1663.49,1665.40,1667.01,1667.73,1665.31,1666.36,1666.16,1666.95,1664.51,1663.19,1663.71,1664.62,1665.03,1662.87,1661.64,1659.38,1653.79,1642.11,0.00,0.00,0.00,0.00,0.00,0.00,0.00,0.00,0.00,0.00,0.00,0.00,0.00,0.00,0.00,0.00,0.00,0.00,0.00,0.00,0.00,0.00,0.00,0.00,0.00,0.00,0.00,0.00,0.00,0.00,0.00,0.00,0.00,0.00,0.00,0.00,0.00,0.00,1345.15,1338.07,0.00,0.00,0.00,1673.01,1677.27,1682.70,1685.00,1686.78,1685.84,1686.98,1687.52,1689.69,1689.89,1691.51,1692.80,1694.14,1694.28,1694.26,1694.42,1696.16,1698.02,1698.23,1697.17,1697.06,1698.99,1700.40,1701.49,1702.87,1704.07,1704.76,1704.39,1704.59,1705.25,1706.15,1707.23,1708.76,1709.00,1708.06,1706.63,1707.93,1710.77,1713.04,1713.51,1713.50,1714.91,1716.01,1717.08,1717.35,1717.05,1717.57,1716.20,1718.47,1719.67,1720.93,1720.31,1721.03,1722.50,1723.02,1722.57,1723.40,1724.96,1726.50,1727.23,1728.58,1728.71,1729.39,1728.94,1730.35,1730.79,1731.06,1730.98,1733.54,1734.52,1736.08,1733.86,1735.74,1736.67,1738.62,1738.24,1737.64,1738.00,1738.90,1739.57,1740.82,1740.89,1742.08,1743.07,1745.35,1745.45,1745.06,1744.83,1745.80,1745.32,1746.88,1748.10,1749.83,1749.04,1750.69,1751.63,1751.46,1751.56,1754.87,1759.61,1762.62,1767.55,1774.15,1780.56,1787.44,0.00,0.00,0.00,0.00,0.00,0.00,0.00,680.65,709.18,0.00,723.79,724.30,723.56,724.03,725.94,729.39,731.02,733.12,732.67,731.74,730.02,730.29,731.33,732.64,732.01,730.64,730.61,731.13,732.39,733.43,734.54,737.22,739.28,741.21,737.06,730.27,0.00,0.00,0.00,0.00,542.58,0.00,715.13,717.85,717.86,712.80,705.79,700.09,695.64,694.14,691.94,690.75,688.27,685.69,681.52,677.00,671.43,668.19,665.16,664.71,662.44,660.62,657.92,656.87,656.95,657.81,658.41,656.86,655.83,654.43,655.27,653.63,653.50,652.78,655.01,655.76,656.92,656.54,657.31,658.34,660.43,660.62,659.37,659.17,661.06,664.55,666.73,668.74,668.54,670.63,673.30,675.60,675.31,674.51,675.48,676.97,679.26,680.52,683.01,684.13,686.94,688.94,691.79,695.07,699.13,704.39,712.47,720.05,724.63,723.96,724.63,725.34,725.64,712.42,653.93,588.44,585.71,558.39,578.67,566.08,560.54,571.96,551.18,515.42,520.40,520.73,0.00,0.00,0.00,0.00,0.00,0.00,0.00,0.00,0.00,0.00,0.00,0.00,0.00,0.00,0.00,0.00,0.00,0.00,0.00,0.00,0.00,0.00,0.00,0.00,0.00,0.00,0.00,0.00,0.00,0.00,0.00,0.00,0.00,0.00,0.00,0.00,0.00,0.00,0.00,0.00,0.00,0.00,0.00,0.00,0.00,0.00,0.00,0.00,0.00,0.00,0.00,0.00,0.00,0.00,0.00,0.00,0.00,0.00,0.00,0.00,0.00,0.00,0.00,0.00,0.00,0.00,0.00,0.00,0.00,0.00,0.00,0.00,0.00,0.00,0.00,0.00,0.00,0.00,0.00,0.00,0.00,0.00,0.00,0.00,0.00,0.00,0.00,0.00,0.00,0.00,0.00,0.00,0.00,0.00,0.00,0.00,0.00,0.00,0.00,0.00,0.00,0.00,0.00,0.00,0.00,0.00,0.00,0.00,0.00,0.00,0.00,0.00,0.00,0.00,0.00,0.00,0.00,0.00,0.00,0.00,0.00,0.00,0.00,0.00,0.00,0.00,0.00,0.00,0.00,0.00,0.00,0.00,0.00,0.00,0.00,0.00,0.00,0.00,0.00
0.00,0.00,0.00,0.00,0.00,0.00,0.00,0.00,0.00,0.00,0.00,0.00,0.00,0.00,0.00,0.00,0.00,0.00,0.00,0.00,0.00,0.00,0.00,0.00,0.00,0.00,0.00,0.00,1581.41,1609.45,1622.11,1625.13,1625.39,1627.88,1636.08,1643.46,1646.52,1647.96,1649.62,1649.87,1652.07,1653.83,1658.18,1658.94,1661.02,1660.96,1661.61,1659.70,1660.44,1660.62,1662.08,1661.64,1662.34,1663.50,1663.65,1663.27,1662.39,1661.62,1661.65,1660.58,1662.65,1663.50,1663.57,1661.54,1662.52,1665.54,1668.04,1666.42,1664.84,1664.47,1664.32,1663.38,1662.87,1662.54,1663.09,1662.61,1662.89,1660.91,1660.79,1660.11,1657.89,1652.34,1645.91,0.00,0.00,0.00,0.00,0.00,0.00,0.00,0.00,0.00,0.00,0.00,0.00,0.00,0.00,0.00,0.00,0.00,0.00,0.00,0.00,0.00,0.00,0.00,0.00,0.00,0.00,0.00,0.00,0.00,0.00,0.00,0.00,0.00,0.00,0.00,0.00,0.00,0.00,1326.24,1326.56,0.00,0.00,1648.47,1666.55,1676.54,1681.16,1683.33,1683.14,1684.77,1685.77,1687.34,1687.76,1689.13,1690.88,1691.77,1692.17,1691.29,1691.78,1693.17,1695.19,1695.42,1693.52,1693.81,1695.43,1698.49,1699.78,1700.41,1701.97,1702.80,1703.30,1702.87,1703.62,1704.04,1705.23,1706.21,1706.67,1706.49,1706.10,1707.19,1709.02,1710.80,1711.44,1712.28,1713.90,1714.59,1714.35,1713.57,1714.37,1714.85,1714.47,1715.83,1717.28,1718.49,1717.33,1718.56,1721.21,1722.33,1721.87,1721.17,1722.31,1722.20,1723.39,1725.49,1727.70,1729.11,1728.22,1728.35,1727.63,1727.79,1728.50,1730.26,1731.71,1732.96,1732.63,1733.54,1734.48,1735.34,1736.34,1735.33,1735.65,1735.34,1736.64,1737.28,1738.13,1739.43,1740.98,1743.71,1743.85,1743.89,1743.25,1743.27,1741.46,1743.16,1745.76,1749.93,1748.03,1749.42,1750.68,1752.63,1753.81,1756.52,1763.34,1767.98,1782.20,0.00,0.00,0.00,0.00,0.00,0.00,0.00,0.00,657.19,702.47,715.36,720.76,724.07,726.00,726.56,726.29,727.84,730.35,732.13,732.21,732.98,732.79,732.42,730.60,730.54,732.16,733.99,735.64,735.00,736.33,736.52,738.83,740.23,740.19,741.03,743.15,745.62,746.04,745.33,746.49,743.48,737.73,0.00,589.25,0.00,704.12,714.71,717.20,712.38,704.98,698.55,695.00,692.35,688.73,685.83,684.39,683.45,680.07,676.74,672.86,669.43,666.68,665.71,664.76,661.02,657.89,655.65,657.07,657.53,657.76,654.73,654.09,653.23,654.46,652.62,652.64,651.15,652.01,651.48,654.09,654.67,655.82,655.86,657.45,657.44,656.86,657.00,659.50,662.63,664.94,667.06,668.42,670.69,672.69,674.18,674.28,674.09,676.61,679.37,682.14,682.39,683.62,683.42,685.86,687.41,691.87,694.93,699.52,705.78,712.27,718.35,720.82,721.91,723.24,724.76,726.16,715.11,656.97,606.64,564.27,583.87,615.35,586.39,561.66,562.50,584.78,546.12,515.14,527.40,530.46,0.00,0.00,0.00,0.00,0.00,0.00,0.00,0.00,0.00,0.00,0.00,0.00,0.00,0.00,0.00,0.00,0.00,0.00,0.00,0.00,0.00,0.00,0.00,0.00,0.00,0.00,0.00,0.00,0.00,0.00,0.00,0.00,0.00,0.00,0.00,0.00,0.00,0.00,0.00,0.00,0.00,0.00,0.00,0.00,0.00,0.00,0.00,0.00,0.00,0.00,0.00,0.00,0.00,0.00,0.00,0.00,0.00,0.00,0.00,0.00,0.00,0.00,0.00,0.00,0.00,0.00,0.00,0.00,0.00,0.00,0.00,0.00,0.00,0.00,0.00,0.00,0.00,0.00,0.00,0.00,0.00,0.00,0.00,0.00,0.00,0.00,0.00,0.00,0.00,0.00,0.00,0.00,0.00,0.00,0.00,0.00,0.00,0.00,0.00,0.00,0.00,0.00,0.00,0.00,0.00,0.00,0.00,0.00,0.00,0.00,0.00,0.00,0.00,0.00,0.00,0.00,0.00,0.00,0.00,0.00,0.00,0.00,0.00,0.00,0.00,0.00,0.00,0.00,0.00,0.00,0.00,0.00,0.00,0.00,0.00,0.00,0.00,0.00
0.00,0.00,0.00,0.00,0.00,0.00,0.00,0.00,0.00,0.00,0.00,0.00,0.00,0.00,0.00,0.00,0.00,0.00,0.00,0.00,0.00,0.00,0.00,0.00,0.00,0.00,0.00,0.00,0.00,1602.96,1619.58,1624.37,1627.49,1631.12,1638.39,1645.51,1647.91,1650.32,1650.83,1652.22,1653.66,1656.47,1659.31,1661.57,1662.38,1663.06,1662.20,1661.64,1660.97,1661.72,1663.21,1664.29,1663.95,1665.28,1665.36,1665.01,1664.14,1663.74,1663.43,1662.78,1662.99,1663.67,1662.38,1662.81,1663.78,1666.98,1667.96,1667.91,1666.63,1665.80,1664.55,1663.43,1662.99,1663.87,1665.00,1665.20,1663.73,1662.32,1661.87,1662.65,1661.88,1660.74,1657.44,1653.72,1644.23,0.00,0.00,0.00,0.00,0.00,0.00,0.00,0.00,0.00,0.00,0.00,0.00,0.00,0.00,0.00,0.00,0.00,0.00,0.00,0.00,0.00,0.00,0.00,0.00,0.00,0.00,0.00,0.00,0.00,0.00,0.00,0.00,0.00,0.00,0.00,0.00,0.00,0.00,0.00,0.00,0.00,1647.53,1668.96,1678.20,1682.95,1683.87,1685.71,1687.13,1687.90,1687.58,1688.71,1691.12,1693.04,1693.21,1693.09,1692.20,1693.26,1695.36,1697.17,1696.45,1696.23,1696.81,1699.56,1700.35,1701.96,1703.06,1703.94,1703.84,1703.89,1704.68,1705.35,1706.36,1707.73,1708.14,1709.26,1709.93,1711.20,1711.00,1711.23,1711.02,1712.66,1713.94,1715.25,1714.54,1714.63,1715.16,1716.41,1716.91,1718.10,1719.81,1719.85,1719.80,1720.22,1722.92,1723.63,1722.57,1721.84,1722.46,1723.70,1725.04,1727.11,1728.99,1730.20,1729.39,1729.20,1729.25,1729.64,1730.91,1731.11,1732.69,1733.68,1733.75,1734.66,1735.14,1737.07,1737.62,1736.81,1736.36,1736.72,1739.10,1740.35,1740.25,1739.88,1740.97,1744.31,1744.80,1745.18,1744.56,1744.82,1743.52,1745.70,1748.93,1753.98,1751.82,1754.51,1756.10,1764.26,1769.41,1782.94,0.00,0.00,0.00,0.00,0.00,0.00,676.59,668.56,670.31,687.88,703.53,714.68,722.19,728.09,729.83,731.05,730.18,730.08,729.46,731.78,733.70,735.34,734.26,735.06,734.14,733.85,731.72,731.72,733.28,735.91,736.82,736.97,737.94,738.75,740.27,741.26,742.27,743.92,747.00,750.03,750.84,750.93,753.31,754.93,755.59,753.40,741.36,688.29,683.17,713.95,718.11,715.76,709.26,703.52,698.80,695.13,690.97,688.63,688.01,687.51,684.18,681.59,678.41,675.63,672.24,670.97,670.63,667.26,664.14,661.98,663.85,664.04,663.29,659.79,657.52,656.74,657.31,657.23,656.41,655.81,655.72,656.01,658.36,659.17,658.83,658.86,660.10,661.52,661.17,660.96,662.70,665.98,669.52,671.63,673.44,675.53,677.82,678.14,678.61,679.84,682.00,683.73,684.90,684.83,686.54,687.38,690.69,693.42,697.44,700.86,705.88,712.94,718.98,722.37,723.85,724.81,725.69,727.01,727.31,717.00,664.10,612.56,609.37,613.38,623.47,625.98,578.04,565.23,599.10,566.57,546.78,527.80,519.01,530.88,0.00,0.00,0.00,0.00,0.00,0.00,0.00,0.00,0.00,0.00,0.00,0.00,0.00,0.00,0.00,0.00,0.00,0.00,0.00,0.00,0.00,0.00,0.00,0.00,0.00,0.00,0.00,0.00,0.00,0.00,0.00,0.00,0.00,0.00,0.00,0.00,0.00,0.00,0.00,0.00,0.00,0.00,0.00,0.00,0.00,0.00,0.00,0.00,0.00,0.00,0.00,0.00,0.00,0.00,0.00,0.00,0.00,0.00,0.00,0.00,0.00,0.00,0.00,0.00,0.00,0.00,0.00,0.00,0.00,0.00,0.00,0.00,0.00,0.00,0.00,0.00,0.00,0.00,0.00,0.00,0.00,0.00,0.00,0.00,0.00,0.00,0.00,0.00,0.00,0.00,0.00,0.00,0.00,0.00,0.00,0.00,0.00,0.00,0.00,0.00,0.00,0.00,0.00,0.00,0.00,0.00,0.00,0.00,0.00,0.00,0.00,0.00,0.00,0.00,0.00,0.00,0.00,0.00,0.00,0.00,0.00,0.00,0.00,0.00,0.00,0.00,0.00,0.00,0.00,0.00,0.00,0.00,0.00,0.00,0.00,0.00,0.00
0.00,0.00,0.00,0.00,0.00,0.00,0.00,0.00,0.00,0.00,0.00,0.00,0.00,0.00,0.00,0.00,0.00,0.00,0.00,0.00,0.00,0.00,0.00,0.00,0.00,0.00,0.00,0.00,0.00,1597.13,1616.23,1623.86,1628.27,1632.60,1638.05,1644.74,1645.94,1647.71,1648.21,1650.83,1653.54,1655.78,1657.91,1658.80,1659.26,1660.24,1660.28,1659.77,1658.83,1659.86,1662.16,1662.45,1661.69,1662.87,1663.99,1663.76,1662.69,1662.17,1662.56,1661.63,1662.18,1662.03,1661.19,1660.82,1661.93,1664.22,1665.32,1664.62,1663.85,1661.35,1661.28,1660.33,1661.45,1662.10,1662.69,1662.54,1661.79,1662.69,1663.09,1663.40,1662.93,1661.86,1660.25,1658.42,1655.08,1648.96,0.00,0.00,0.00,0.00,0.00,0.00,0.00,0.00,0.00,0.00,0.00,0.00,0.00,0.00,0.00,0.00,0.00,0.00,0.00,0.00,0.00,0.00,0.00,0.00,0.00,0.00,0.00,0.00,0.00,0.00,0.00,0.00,0.00,0.00,0.00,0.00,0.00,0.00,0.00,1339.98,0.00,1652.31,1670.50,1677.63,1682.18,1684.19,1686.18,1685.42,1685.94,1686.18,1687.57,1689.08,1690.57,1691.49,1691.12,1691.91,1693.03,1693.96,1693.57,1694.34,1695.27,1697.15,1697.17,1699.11,1700.34,1700.65,1700.76,1700.78,1702.52,1702.84,1703.92,1704.58,1704.87,1706.03,1708.33,1710.01,1710.53,1709.43,1710.08,1711.39,1712.84,1712.95,1711.72,1711.50,1713.25,1714.80,1716.62,1716.01,1717.26,1717.04,1718.44,1719.53,1720.97,1722.03,1720.89,1720.77,1721.21,1722.31,1723.13,1725.02,1726.83,1727.63,1726.44,1726.59,1727.90,1728.68,1730.05,1729.07,1730.23,1730.91,1732.10,1732.13,1732.01,1733.00,1733.59,1733.80,1734.28,1735.60,1737.85,1738.43,1738.21,1736.86,1737.96,1740.96,1743.47,1744.49,1744.38,1744.97,1744.66,1747.56,1750.19,1755.57,1756.67,1763.07,0.00,0.00,0.00,0.00,0.00,0.00,0.00,0.00,703.30,711.78,711.81,706.83,705.93,710.91,719.65,724.43,728.21,729.40,728.28,728.95,725.77,725.89,725.93,729.74,731.32,731.66,729.56,729.23,727.89,729.40,730.39,730.38,730.62,730.87,732.18,733.49,734.39,735.56,736.27,736.46,738.32,740.47,745.45,748.45,749.91,750.91,753.82,757.36,759.46,761.31,759.51,749.69,708.33,714.12,717.08,716.83,710.64,704.32,698.41,694.51,690.50,688.49,687.73,686.80,682.79,680.34,677.93,675.79,672.93,670.82,669.91,666.06,664.19,662.07,663.60,662.72,662.14,659.82,657.51,657.05,657.68,658.68,657.50,656.26,655.91,656.35,657.46,656.97,655.45,655.39,656.47,658.49,659.36,660.55,662.65,664.94,668.21,670.53,674.60,675.91,676.86,675.75,677.72,678.83,681.55,681.95,683.77,682.93,684.54,686.17,690.40,695.24,699.39,702.91,707.06,713.45,717.52,720.38,720.55,722.11,723.24,725.45,724.81,711.63,660.91,620.00,610.93,613.27,615.98,604.47,605.23,608.21,577.54,575.76,551.11,534.06,528.10,516.67,507.00,516.14,0.00,0.00,0.00,0.00,0.00,0.00,0.00,0.00,0.00,0.00,0.00,0.00,0.00,0.00,0.00,0.00,0.00,0.00,0.00,0.00,0.00,0.00,0.00,0.00,0.00,0.00,0.00,0.00,0.00,0.00,0.00,0.00,0.00,0.00,0.00,0.00,0.00,0.00,0.00,0.00,0.00,0.00,0.00,0.00,0.00,0.00,0.00,0.00,0.00,0.00,0.00,0.00,0.00,0.00,0.00,0.00,0.00,0.00,0.00,0.00,0.00,0.00,0.00,0.00,0.00,0.00,0.00,0.00,0.00,0.00,0.00,0.00,0.00,0.00,0.00,0.00,0.00,0.00,0.00,0.00,0.00,0.00,0.00,0.00,0.00,0.00,0.00,0.00,0.00,0.00,0.00,0.00,0.00,0.00,0.00,0.00,0.00,0.00,0.00,0.00,0.00,0.00,0.00,0.00,0.00,0.00,0.00,0.00,0.00,0.00,0.00,0.00,0.00,0.00,0.00,0.00,0.00,0.00,0.00,0.00,0.00,0.00,0.00,0.00,0.00,0.00,0.00,0.00,0.00,0.00,0.00,0.00,0.00,0.00,0.00
0.00,0.00,0.00,0.00,0.00,0.00,0.00,0.00,0.00,0.00,0.00,0.00,0.00,0.00,0.00,0.00,0.00,0.00,0.00,0.00,0.00,0.00,0.00,0.00,0.00,0.00,0.00,0.00,0.00,1593.32,1617.29,1627.92,1632.83,1638.28,1641.47,1646.82,1647.11,1649.02,1649.35,1652.83,1653.76,1654.83,1656.43,1659.31,1660.13,1660.52,1661.02,1662.67,1661.57,1662.54,1662.77,1665.07,1664.23,1665.47,1664.86,1665.34,1664.32,1664.80,1664.95,1664.62,1664.25,1664.72,1664.25,1663.90,1663.48,1664.57,1664.66,1664.98,1664.81,1663.75,1661.90,1661.30,1661.67,1663.83,1664.69,1665.29,1664.47,1665.04,1664.70,1664.77,1665.06,1665.69,1665.01,1663.18,1660.82,1658.28,1653.29,1645.70,0.00,0.00,0.00,0.00,0.00,0.00,0.00,0.00,0.00,0.00,0.00,0.00,0.00,0.00,0.00,0.00,0.00,0.00,0.00,0.00,0.00,0.00,0.00,0.00,0.00,0.00,0.00,0.00,0.00,0.00,0.00,0.00,0.00,0.00,0.00,0.00,0.00,0.00,1333.65,0.00,1660.41,1674.21,1682.17,1684.87,1686.45,1685.89,1686.60,1686.77,1687.80,1690.24,1692.44,1693.66,1692.17,1692.87,1694.25,1696.15,1696.72,1697.30,1696.91,1697.05,1696.51,1699.61,1700.80,1701.49,1701.19,1701.87,1703.39,1703.61,1704.50,1706.40,1706.80,1707.95,1708.66,1710.33,1710.15,1709.08,1710.19,1711.95,1714.20,1714.26,1713.67,1712.87,1713.66,1714.30,1716.78,1717.61,1719.75,1719.29,1720.24,1720.90,1721.24,1722.13,1720.97,1721.71,1722.81,1725.19,1725.46,1726.84,1726.88,1727.48,1725.86,1727.31,1729.59,1731.24,1731.92,1730.22,1730.31,1730.67,1731.95,1732.94,1733.27,1734.43,1734.29,1735.29,1736.80,1738.83,1741.20,1741.21,1740.58,1738.09,1739.26,1741.46,1745.00,1746.75,1747.88,1749.99,1752.28,1758.02,1760.97,1769.91,0.00,0.00,0.00,0.00,0.00,0.00,0.00,0.00,686.11,714.18,722.10,724.40,725.81,722.57,722.13,723.67,728.40,730.98,731.87,731.33,729.91,730.67,728.10,728.03,728.32,732.45,732.95,732.66,729.89,729.81,728.50,729.96,730.88,731.45,730.73,730.97,731.91,733.97,733.86,734.42,734.96,736.12,738.68,740.96,745.57,748.18,750.06,751.85,755.99,759.87,763.09,766.39,767.67,766.09,754.52,730.78,724.66,723.99,718.03,711.61,703.57,699.79,695.96,695.06,693.28,691.60,686.86,684.07,681.17,679.32,676.38,674.85,673.06,670.65,668.86,667.77,667.71,666.04,665.10,664.26,663.08,661.74,661.27,661.74,661.49,661.11,661.17,661.66,661.30,660.01,658.92,660.01,660.54,661.64,661.87,663.89,666.17,668.92,671.70,673.43,675.99,678.25,679.89,680.55,681.92,683.95,684.43,683.81,684.23,685.32,688.85,691.65,696.03,700.16,704.84,709.78,714.89,719.89,722.27,723.62,722.77,723.96,724.23,725.99,723.16,709.59,658.75,626.19,614.95,607.93,607.28,605.73,598.84,584.15,586.15,578.03,548.34,537.47,535.37,522.05,521.64,531.37,0.00,0.00,0.00,0.00,0.00,0.00,0.00,0.00,0.00,0.00,0.00,0.00,0.00,734.25,750.99,754.47,754.57,752.53,746.84,736.30,721.08,0.00,0.00,0.00,0.00,0.00,0.00,0.00,0.00,0.00,0.00,0.00,0.00,0.00,0.00,0.00,0.00,0.00,0.00,0.00,0.00,0.00,0.00,0.00,0.00,0.00,0.00,0.00,0.00,0.00,0.00,0.00,0.00,0.00,0.00,0.00,0.00,0.00,0.00,0.00,0.00,0.00,0.00,0.00,0.00,0.00,0.00,0.00,0.00,0.00,0.00,0.00,0.00,0.00,0.00,0.00,0.00,0.00,0.00,0.00,0.00,0.00,0.00,0.00,0.00,0.00,0.00,0.00,0.00,0.00,0.00,0.00,0.00,0.00,0.00,0.00,0.00,0.00,0.00,0.00,0.00,0.00,0.00,0.00,0.00,0.00,0.00,0.00,0.00,0.00,0.00,0.00,0.00,0.00,0.00,0.00,0.00,0.00,0.00,0.00,0.00,0.00,0.00,0.00,0.00,0.00,0.00,0.00,0.00,0.00,0.00,0.00,0.00,0.00,0.00
0.00,0.00,0.00,0.00,0.00,0.00,0.00,0.00,0.00,0.00,0.00,0.00,0.00,0.00,0.00,0.00,0.00,0.00,0.00,0.00,0.00,0.00,0.00,0.00,0.00,0.00,0.00,0.00,0.00,0.00,1618.78,1630.72,1634.92,1638.17,1639.92,1643.79,1644.76,1646.67,1648.76,1651.42,1652.85,1653.11,1654.54,1656.68,1657.44,1657.58,1658.48,1659.59,1659.89,1660.29,1661.08,1663.29,1662.33,1661.82,1660.63,1661.27,1661.26,1662.22,1662.67,1662.56,1662.84,1663.79,1664.33,1663.43,1663.32,1663.95,1663.77,1663.59,1662.95,1661.31,1659.59,1660.29,1662.29,1664.01,1663.96,1664.21,1664.54,1663.49,1662.59,1661.18,1663.05,1663.41,1663.31,1662.18,1661.38,1660.15,1658.42,1655.39,1649.32,0.00,0.00,0.00,0.00,0.00,0.00,0.00,0.00,0.00,0.00,0.00,0.00,0.00,0.00,0.00,0.00,0.00,0.00,0.00,0.00,0.00,0.00,0.00,0.00,0.00,0.00,0.00,0.00,0.00,0.00,0.00,0.00,0.00,0.00,0.00,0.00,0.00,0.00,1362.90,0.00,1662.24,1676.02,1679.95,1682.85,1683.15,1685.29,1685.22,1684.95,1687.27,1689.29,1690.44,1689.64,1690.74,1692.28,1693.90,1694.28,1694.48,1694.98,1695.78,1695.97,1696.92,1697.73,1698.67,1699.28,1700.06,1700.82,1701.18,1702.06,1703.46,1704.58,1705.76,1706.40,1706.65,1706.83,1707.30,1709.15,1710.35,1711.89,1711.74,1710.91,1709.90,1711.21,1712.12,1714.13,1713.92,1716.33,1716.55,1717.59,1718.02,1718.26,1719.29,1719.01,1719.79,1721.09,1723.30,1723.85,1724.39,1723.68,1724.20,1723.70,1725.41,1727.43,1728.92,1729.29,1728.29,1727.71,1727.82,1729.34,1730.50,1731.44,1731.24,1731.76,1732.99,1735.63,1737.02,1738.52,1738.23,1738.68,1737.67,1738.84,1740.25,1744.33,1748.08,1750.75,1753.32,1756.40,1763.13,1774.85,0.00,0.00,0.00,0.00,0.00,0.00,0.00,618.91,703.84,720.79,724.84,727.30,727.46,728.15,725.64,724.99,725.42,726.98,727.47,728.63,726.87,727.15,725.75,724.82,724.28,725.65,728.19,727.25,726.49,725.29,725.93,724.95,725.18,726.31,727.28,726.97,726.40,727.45,729.49,730.08,729.38,729.82,731.71,734.85,736.83,740.05,742.15,744.98,747.47,752.22,756.14,760.76,764.22,768.21,768.63,766.88,753.08,732.56,725.67,721.10,714.06,705.27,699.10,694.84,693.75,691.68,688.91,684.27,680.97,679.36,677.47,675.77,673.81,671.79,669.71,668.57,667.26,665.66,663.00,663.45,664.13,664.98,662.80,662.47,661.21,661.55,659.78,659.54,659.70,658.47,657.38,657.54,659.77,660.18,659.80,660.25,662.79,665.56,668.40,670.24,671.63,673.73,676.02,676.60,677.39,679.33,682.04,683.21,683.54,685.18,686.96,689.56,691.38,694.37,698.62,706.28,712.77,717.69,719.75,720.60,721.27,720.57,721.51,722.44,724.44,722.24,708.10,654.68,638.83,620.28,606.02,600.30,600.85,593.49,591.95,586.73,582.88,559.42,553.34,548.04,545.30,0.00,0.00,0.00,0.00,0.00,0.00,0.00,0.00,0.00,0.00,0.00,0.00,0.00,740.38,751.31,755.91,758.76,760.72,761.51,761.48,755.43,744.01,730.71,719.51,704.48,0.00,0.00,0.00,0.00,0.00,0.00,0.00,0.00,0.00,0.00,0.00,0.00,0.00,0.00,0.00,0.00,0.00,0.00,0.00,0.00,0.00,0.00,0.00,0.00,0.00,0.00,0.00,0.00,0.00,0.00,0.00,0.00,0.00,0.00,0.00,0.00,0.00,0.00,0.00,0.00,0.00,0.00,0.00,0.00,0.00,0.00,0.00,0.00,0.00,0.00,0.00,0.00,0.00,0.00,0.00,0.00,0.00,0.00,0.00,0.00,0.00,0.00,0.00,0.00,0.00,0.00,0.00,0.00,0.00,0.00,0.00,0.00,0.00,0.00,0.00,0.00,0.00,0.00,0.00,0.00,0.00,0.00,0.00,0.00,0.00,0.00,0.00,0.00,0.00,0.00,0.00,0.00,0.00,0.00,0.00,0.00,0.00,0.00,0.00,0.00,0.00,0.00,0.00,0.00,0.00,0.00,0.00,0.00,0.00,0.00,0.00,0.00
0.00,0.00,0.00,0.00,0.00,0.00,0.00,0.00,0.00,0.00,0.00,0.00,0.00,0.00,0.00,0.00,0.00,0.00,0.00,0.00,0.00,0.00,0.00,0.00,0.00,0.00,0.00,0.00,0.00,0.00,1619.33,1635.02,1639.47,1641.79,1643.22,1645.28,1645.99,1648.11,1650.29,1651.73,1651.97,1652.53,1654.23,1656.46,1657.60,1658.23,1659.32,1661.26,1661.30,1661.06,1660.50,1662.65,1662.08,1662.23,1660.96,1662.30,1662.52,1664.39,1665.43,1665.73,1664.66,1664.90,1665.24,1666.15,1665.81,1667.21,1666.03,1666.18,1664.05,1664.11,1662.39,1663.44,1663.78,1664.45,1665.18,1665.59,1665.72,1663.44,1662.24,1661.63,1663.38,1664.26,1664.14,1664.55,1664.23,1663.57,1660.84,1660.23,1658.98,1655.08,1646.34,0.00,0.00,0.00,0.00,0.00,0.00,0.00,0.00,0.00,0.00,0.00,0.00,0.00,0.00,0.00,0.00,0.00,0.00,0.00,0.00,0.00,0.00,0.00,0.00,0.00,0.00,0.00,0.00,0.00,0.00,0.00,0.00,0.00,0.00,0.00,0.00,0.00,0.00,1641.01,1667.26,1676.17,1680.64,1683.18,1684.32,1685.14,1684.77,1688.08,1690.27,1691.81,1690.50,1691.06,1692.84,1695.40,1696.78,1696.18,1696.21,1696.74,1698.09,1698.42,1698.81,1699.47,1700.59,1701.76,1702.03,1701.96,1701.58,1703.31,1704.91,1707.42,1707.31,1707.19,1707.08,1708.02,1709.36,1710.58,1711.53,1711.78,1710.94,1710.50,1712.43,1714.33,1715.42,1715.28,1717.01,1717.97,1718.49,1719.05,1721.09,1722.44,1721.76,1720.39,1720.18,1722.23,1723.85,1725.25,1725.19,1726.08,1726.27,1727.60,1728.23,1729.54,1730.04,1729.70,1729.12,1729.72,1732.00,1733.41,1733.96,1733.97,1734.73,1734.59,1735.26,1736.72,1738.69,1739.90,1740.70,1741.80,1743.26,1744.37,1748.51,1754.25,1761.61,1767.72,1772.58,0.00,0.00,0.00,0.00,0.00,0.00,0.00,0.00,687.35,710.46,724.10,728.45,730.20,730.46,730.45,730.06,728.92,728.69,728.79,727.71,727.24,728.04,728.29,729.94,728.33,728.25,726.58,727.02,727.39,726.21,726.38,726.27,726.71,725.78,725.05,724.84,726.30,726.88,728.23,729.02,730.75,730.68,730.28,730.35,732.43,733.53,734.96,737.21,740.30,743.51,745.09,749.37,752.09,758.35,762.29,768.95,772.18,774.47,770.47,753.35,736.46,729.12,722.22,713.81,706.65,700.55,697.86,694.55,691.38,686.18,681.50,679.76,679.75,678.97,679.08,676.99,676.38,673.59,671.38,668.61,666.45,667.19,667.98,668.59,666.28,663.96,662.35,662.44,662.19,660.87,660.71,660.45,661.77,662.70,664.86,664.17,663.67,664.25,667.07,669.37,671.54,673.55,675.35,677.21,679.16,680.44,682.09,683.10,685.45,687.12,689.21,690.33,691.48,693.91,696.65,699.93,703.89,712.27,718.33,723.18,723.08,723.42,723.11,723.29,723.90,725.37,726.79,725.03,710.31,660.76,644.98,643.63,619.76,609.46,607.52,603.30,604.07,610.87,601.42,620.05,593.20,576.49,562.59,567.74,0.00,0.00,0.00,0.00,0.00,0.00,0.00,0.00,753.85,759.65,762.76,762.02,762.17,762.67,765.36,766.87,766.64,767.02,766.37,760.67,749.69,739.74,732.22,724.52,712.90,0.00,0.00,0.00,0.00,0.00,0.00,0.00,0.00,0.00,0.00,0.00,0.00,0.00,0.00,0.00,0.00,0.00,0.00,0.00,0.00,0.00,0.00,0.00,0.00,0.00,0.00,0.00,0.00,0.00,0.00,0.00,0.00,0.00,0.00,0.00,0.00,0.00,0.00,0.00,0.00,0.00,0.00,0.00,0.00,0.00,0.00,0.00,0.00,0.00,0.00,0.00,0.00,0.00,0.00,0.00,0.00,0.00,0.00,0.00,0.00,0.00,0.00,0.00,0.00,0.00,0.00,0.00,0.00,0.00,0.00,0.00,0.00,0.00,0.00,0.00,0.00,0.00,0.00,0.00,0.00,0.00,0.00,0.00,0.00,0.00,0.00,0.00,0.00,0.00,0.00,0.00,0.00,0.00,0.00,0.00,0.00,0.00,0.00,0.00,0.00,0.00,0.00,0.00,0.00,0.00,0.00,0.00,0.00,0.00,0.00,0.00
0.00,0.00,0.00,0.00,0.00,0.00,0.00,0.00,0.00,0.00,0.00,0.00,0.00,0.00,0.00,0.00,0.00,0.00,0.00,0.00,0.00,0.00,0.00,0.00,0.00,0.00,0.00,0.00,0.00,0.00,1613.68,1629.76,1636.12,1638.71,1641.84,1644.30,1645.54,1647.36,1649.52,1650.81,1652.11,1652.11,1653.89,1654.77,1655.29,1655.68,1656.94,1658.23,1658.81,1658.81,1659.33,1660.18,1660.48,1661.44,1660.33,1660.05,1659.18,1660.22,1661.54,1661.82,1661.90,1661.63,1663.50,1664.44,1663.88,1664.77,1663.15,1663.38,1660.62,1661.91,1662.70,1663.49,1663.50,1663.07,1663.81,1663.46,1662.69,1661.13,1661.41,1662.12,1663.46,1662.49,1661.67,1661.72,1662.18,1661.31,1658.93,1658.21,1659.16,1658.10,1654.80,1648.38,0.00,0.00,0.00,0.00,0.00,0.00,0.00,0.00,0.00,0.00,0.00,0.00,0.00,0.00,0.00,0.00,0.00,0.00,0.00,0.00,0.00,0.00,0.00,0.00,0.00,0.00,0.00,0.00,0.00,0.00,0.00,0.00,0.00,0.00,0.00,0.00,0.00,0.00,1645.17,1665.26,1672.97,1678.61,1681.04,1682.24,1682.05,1683.68,1685.26,1687.49,1687.47,1688.88,1689.54,1691.86,1693.59,1694.27,1694.68,1694.32,1695.52,1696.62,1697.11,1697.57,1698.57,1699.63,1700.04,1699.37,1698.91,1699.76,1702.07,1704.58,1704.82,1704.90,1706.03,1707.10,1707.69,1707.64,1708.26,1709.71,1709.60,1710.65,1711.50,1713.05,1711.93,1711.56,1712.87,1714.73,1715.61,1716.21,1719.18,1720.94,1720.80,1719.01,1718.98,1720.32,1721.76,1722.68,1723.94,1725.41,1725.85,1726.09,1726.16,1726.76,1727.62,1728.05,1729.10,1729.60,1730.87,1731.20,1732.24,1732.69,1733.19,1732.73,1732.46,1734.42,1736.48,1738.35,1739.22,1741.37,1743.30,1745.84,1751.33,1758.77,1769.53,0.00,0.00,0.00,0.00,0.00,0.00,0.00,0.00,668.63,704.41,716.40,724.97,729.35,731.16,730.06,728.79,727.34,726.60,725.42,725.91,726.28,725.42,724.29,725.11,725.27,726.33,724.68,724.59,723.67,723.35,722.61,721.04,720.81,721.12,720.68,720.13,719.22,719.40,721.08,722.31,723.83,724.63,725.68,726.44,726.00,726.48,728.14,728.70,730.16,732.49,735.97,738.58,740.66,743.13,744.71,748.28,752.82,761.39,767.23,772.14,772.40,766.10,745.83,730.90,722.68,715.39,708.04,700.94,696.10,691.00,687.48,682.67,678.65,676.68,676.36,676.39,676.85,675.58,675.15,672.26,669.43,665.78,664.83,665.81,666.16,665.84,664.12,662.94,661.41,660.84,660.06,658.74,658.42,658.19,659.28,660.02,660.87,660.78,661.58,663.82,666.02,668.43,670.04,672.75,674.68,677.08,678.31,678.64,679.67,680.55,682.76,685.55,688.33,691.64,693.24,695.51,697.03,700.31,706.03,714.43,718.76,720.64,719.67,720.92,721.05,721.63,721.61,724.15,726.91,726.19,712.52,667.29,661.66,655.15,659.42,627.62,623.79,618.77,625.13,654.23,660.36,641.56,0.00,0.00,0.00,0.00,0.00,0.00,739.53,744.81,750.05,754.01,758.95,761.27,763.51,765.34,767.13,766.85,766.04,765.92,766.51,766.43,765.22,765.98,764.58,756.98,745.46,739.14,736.16,730.96,725.19,717.10,0.00,0.00,0.00,0.00,0.00,0.00,0.00,0.00,0.00,0.00,0.00,0.00,0.00,0.00,0.00,0.00,0.00,0.00,0.00,0.00,0.00,0.00,0.00,0.00,0.00,0.00,0.00,0.00,0.00,0.00,0.00,0.00,0.00,0.00,0.00,0.00,0.00,0.00,0.00,0.00,0.00,0.00,0.00,0.00,0.00,0.00,0.00,0.00,0.00,0.00,0.00,0.00,0.00,0.00,0.00,0.00,0.00,0.00,0.00,0.00,0.00,0.00,0.00,0.00,0.00,0.00,0.00,0.00,0.00,0.00,0.00,0.00,0.00,0.00,0.00,0.00,0.00,0.00,0.00,0.00,0.00,0.00,0.00,0.00,0.00,0.00,0.00,0.00,0.00,0.00,0.00,0.00,0.00,0.00,0.00,0.00,0.00,0.00,0.00,0.00,0.00,0.00,0.00,0.00,0.00,0.00,0.00,0.00,0.00,0.00
0.00,0.00,0.00,0.00,0.00,0.00,0.00,0.00,0.00,0.00,0.00,0.00,0.00,0.00,0.00,0.00,0.00,0.00,0.00,0.00,0.00,0.00,0.00,0.00,0.00,0.00,0.00,0.00,0.00,0.00,1593.22,1623.46,1635.61,1641.10,1644.87,1647.37,1647.00,1648.37,1648.99,1651.84,1651.69,1652.07,1652.76,1654.67,1656.08,1657.41,1659.23,1660.69,1659.22,1659.02,1659.19,1661.72,1662.14,1663.90,1662.23,1661.89,1660.53,1660.92,1662.09,1662.91,1663.23,1663.10,1663.93,1664.61,1662.50,1663.15,1661.62,1663.61,1661.28,1665.19,1665.04,1665.76,1663.65,1664.27,1664.20,1663.86,1661.68,1662.51,1662.41,1664.39,1663.46,1663.77,1663.09,1662.83,1662.48,1662.32,1660.53,1660.58,1661.34,1662.51,1660.28,1657.38,1652.06,1641.10,0.00,0.00,0.00,0.00,0.00,0.00,0.00,0.00,0.00,0.00,0.00,0.00,0.00,0.00,0.00,0.00,0.00,0.00,0.00,0.00,0.00,0.00,0.00,0.00,0.00,0.00,0.00,0.00,0.00,0.00,0.00,0.00,0.00,0.00,0.00,0.00,0.00,1642.17,1664.15,1672.89,1678.20,1680.81,1682.23,1684.39,1687.10,1688.90,1688.54,1689.15,1689.03,1690.77,1692.23,1694.27,1694.26,1693.51,1694.16,1696.11,1697.64,1700.48,1701.31,1701.62,1701.03,1700.80,1700.09,1700.71,1702.54,1705.20,1705.60,1706.34,1706.87,1707.87,1708.52,1709.35,1709.94,1711.92,1712.54,1714.16,1713.98,1713.55,1712.00,1712.93,1714.97,1716.54,1716.22,1717.44,1720.41,1722.41,1721.80,1720.01,1720.43,1721.48,1722.62,1723.75,1724.80,1725.66,1725.48,1726.36,1727.09,1727.55,1728.38,1728.61,1730.77,1730.26,1731.45,1731.64,1733.07,1733.69,1733.54,1733.10,1731.67,1734.40,1736.83,1739.54,1739.65,1742.57,1747.28,1751.33,1759.22,1768.87,0.00,0.00,0.00,0.00,0.00,0.00,0.00,0.00,685.96,710.29,720.29,727.35,731.32,732.41,732.32,732.58,730.87,729.96,727.67,726.94,726.59,727.32,726.50,726.10,725.15,725.39,724.58,725.80,725.29,724.99,722.72,722.64,722.53,722.66,721.86,719.99,719.53,720.06,720.09,720.43,720.59,721.88,723.37,724.53,726.01,726.89,728.58,729.47,728.75,729.71,732.13,736.09,738.74,741.44,743.21,743.97,745.98,750.03,755.87,761.76,768.00,773.42,774.27,765.25,742.35,731.75,724.88,717.40,707.16,699.85,693.88,691.51,686.39,682.77,678.41,677.96,677.27,677.89,677.65,676.72,674.16,670.81,668.16,667.96,668.15,667.79,666.82,665.85,665.81,665.11,664.20,662.43,661.43,661.35,662.37,663.17,663.21,662.60,662.67,664.56,668.04,670.67,672.17,673.13,674.67,677.43,679.87,681.37,681.95,683.64,684.67,687.37,689.58,693.25,696.14,697.92,699.60,702.97,707.90,714.09,718.41,721.29,721.84,722.15,722.62,723.94,724.75,725.76,727.81,730.93,730.51,719.72,683.29,683.67,695.30,687.67,685.55,674.64,676.18,703.75,0.00,739.39,0.00,0.00,753.19,762.79,764.91,766.51,767.63,767.53,769.34,768.22,769.18,769.61,770.24,771.65,771.66,773.14,772.19,772.47,771.23,771.73,770.75,769.36,768.95,765.33,755.21,744.63,740.77,740.27,737.13,733.41,728.08,721.70,705.82,0.00,0.00,0.00,0.00,0.00,0.00,0.00,0.00,0.00,0.00,0.00,0.00,0.00,0.00,0.00,0.00,0.00,0.00,0.00,0.00,0.00,0.00,0.00,0.00,0.00,0.00,0.00,0.00,0.00,0.00,0.00,0.00,0.00,0.00,0.00,0.00,0.00,0.00,0.00,0.00,0.00,0.00,0.00,0.00,0.00,0.00,0.00,0.00,0.00,0.00,0.00,0.00,0.00,0.00,0.00,0.00,0.00,0.00,0.00,0.00,0.00,0.00,0.00,0.00,0.00,0.00,0.00,0.00,0.00,0.00,0.00,0.00,0.00,0.00,0.00,0.00,0.00,0.00,0.00,0.00,0.00,0.00,0.00,0.00,0.00,0.00,0.00,0.00,0.00,0.00,0.00,0.00,0.00,0.00,0.00,0.00,0.00,0.00,0.00,0.00,0.00,0.00,0.00,0.00,0.00,0.00,0.00,0.00
0.00,0.00,0.00,0.00,0.00,0.00,0.00,0.00,0.00,0.00,0.00,0.00,0.00,0.00,0.00,0.00,0.00,0.00,0.00,0.00,0.00,0.00,0.00,0.00,0.00,0.00,0.00,0.00,0.00,0.00,0.00,1616.06,1632.53,1638.32,1642.73,1646.35,1647.86,1648.58,1647.93,1647.98,1648.85,1648.92,1650.92,1652.82,1654.88,1655.60,1656.04,1658.30,1657.96,1658.55,1658.12,1660.49,1660.69,1661.37,1659.51,1658.37,1658.13,1658.27,1659.51,1658.42,1659.22,1659.02,1660.95,1661.09,1659.88,1659.23,1657.98,1659.67,1659.40,1663.01,1662.46,1662.84,1661.54,1662.92,1662.79,1662.40,1660.70,1661.93,1660.98,1662.08,1661.03,1661.97,1661.59,1661.04,1660.45,1660.37,1659.69,1659.40,1658.26,1658.39,1657.48,1658.24,1657.37,1652.78,1643.21,0.00,0.00,0.00,0.00,0.00,0.00,0.00,0.00,0.00,0.00,0.00,0.00,0.00,0.00,0.00,0.00,0.00,0.00,0.00,0.00,0.00,0.00,0.00,0.00,0.00,0.00,0.00,0.00,0.00,0.00,0.00,0.00,0.00,0.00,0.00,0.00,0.00,1622.96,1661.38,1670.79,1675.91,1678.77,1681.49,1683.85,1685.93,1686.75,1687.14,1686.33,1686.03,1688.66,1691.03,1691.86,1691.15,1692.45,1694.03,1695.09,1697.23,1698.48,1698.21,1698.12,1699.00,1700.15,1700.69,1702.00,1703.12,1703.64,1703.89,1704.27,1705.36,1705.87,1707.51,1708.18,1711.19,1711.46,1713.21,1711.76,1710.85,1709.69,1711.54,1713.60,1713.87,1713.51,1714.95,1717.24,1718.73,1718.60,1718.66,1719.72,1720.96,1721.59,1721.59,1721.96,1721.97,1722.15,1723.17,1724.45,1725.78,1726.21,1727.18,1728.73,1727.89,1727.82,1728.03,1730.60,1731.46,1731.00,1731.23,1731.05,1733.27,1735.25,1737.83,1739.47,1741.82,1747.07,1752.41,0.00,0.00,0.00,0.00,0.00,0.00,0.00,0.00,0.00,671.33,715.12,718.38,724.34,727.40,730.78,731.08,731.98,731.22,728.60,725.79,725.00,723.95,722.97,722.26,722.31,722.37,721.94,721.28,718.75,719.12,719.65,720.80,719.39,718.67,718.42,717.92,717.02,715.41,714.93,714.26,714.03,714.07,715.18,715.89,717.77,718.75,721.44,721.15,723.41,723.43,724.98,725.60,728.41,731.28,734.52,737.96,740.27,741.24,742.02,744.24,747.20,750.30,755.77,764.87,771.15,771.45,752.75,734.36,726.39,718.27,706.91,697.90,691.81,689.55,685.26,681.92,678.70,676.56,675.23,674.27,674.94,673.16,671.45,667.82,666.27,664.61,664.79,664.52,664.56,663.13,663.99,663.90,663.84,661.46,660.75,660.76,661.85,661.91,662.96,661.74,662.19,663.17,667.00,670.03,671.18,672.25,673.01,674.63,676.50,678.87,680.68,681.81,683.72,686.20,688.75,691.22,695.58,699.25,701.76,703.62,708.54,713.48,716.38,717.59,717.53,719.49,719.17,721.22,722.01,724.60,726.56,730.95,735.13,741.73,743.33,753.21,761.42,765.77,765.56,762.41,765.01,768.33,772.56,773.60,773.40,770.91,770.63,773.68,774.20,773.27,772.46,771.62,772.60,771.72,772.74,772.30,771.75,772.62,773.09,774.01,772.22,771.68,770.53,770.54,769.13,768.34,767.66,760.60,748.31,739.20,738.87,740.65,739.42,736.76,733.89,730.65,723.92,713.02,0.00,0.00,0.00,0.00,0.00,0.00,0.00,0.00,0.00,0.00,0.00,0.00,0.00,0.00,0.00,0.00,0.00,0.00,0.00,0.00,0.00,0.00,0.00,0.00,0.00,0.00,0.00,0.00,0.00,0.00,0.00,0.00,0.00,0.00,0.00,0.00,0.00,0.00,0.00,0.00,0.00,0.00,0.00,0.00,0.00,0.00,0.00,0.00,0.00,0.00,0.00,0.00,0.00,0.00,0.00,0.00,0.00,0.00,0.00,0.00,0.00,0.00,0.00,0.00,0.00,0.00,0.00,0.00,0.00,0.00,0.00,0.00,0.00,0.00,0.00,0.00,0.00,0.00,0.00,0.00,0.00,0.00,0.00,0.00,0.00,0.00,0.00,0.00,0.00,0.00,0.00,0.00,0.00,0.00,0.00,0.00,0.00,0.00,0.00,0.00,0.00,0.00,0.00,0.00,0.00,0.00,0.00
0.00,0.00,0.00,0.00,0.00,0.00,0.00,0.00,0.00,0.00,0.00,0.00,0.00,0.00,0.00,0.00,0.00,0.00,0.00,0.00,0.00,0.00,0.00,0.00,0.00,0.00,0.00,0.00,0.00,0.00,0.00,1612.17,1633.60,1640.85,1645.60,1648.41,1649.99,1650.46,1648.46,1646.88,1646.85,1648.17,1651.00,1654.21,1657.68,1657.83,1657.61,1658.70,1659.05,1659.71,1659.24,1661.34,1661.07,1661.26,1659.65,1660.35,1661.09,1662.38,1662.35,1661.15,1660.10,1659.68,1659.74,1660.51,1660.46,1661.44,1660.51,1661.65,1660.98,1663.47,1661.75,1663.21,1662.08,1664.21,1663.75,1664.52,1662.81,1664.11,1662.31,1662.86,1661.37,1663.29,1663.90,1663.74,1663.08,1662.94,1661.87,1661.97,1660.77,1662.06,1661.38,1661.89,1660.35,1657.48,1653.13,1647.97,0.00,0.00,0.00,0.00,0.00,0.00,0.00,0.00,0.00,0.00,0.00,0.00,0.00,0.00,0.00,0.00,0.00,0.00,0.00,0.00,0.00,0.00,0.00,0.00,0.00,0.00,0.00,0.00,0.00,0.00,0.00,0.00,0.00,0.00,0.00,0.00,0.00,0.00,1659.29,1670.57,1676.38,1681.52,1684.14,1686.48,1687.58,1688.18,1687.79,1686.78,1688.61,1690.97,1692.40,1691.90,1693.31,1694.71,1695.85,1698.35,1699.22,1698.30,1697.08,1697.94,1701.15,1702.09,1703.83,1704.82,1705.71,1706.19,1706.43,1707.32,1706.70,1707.81,1708.75,1711.24,1710.96,1711.93,1711.60,1711.78,1711.51,1712.49,1714.36,1714.48,1714.70,1716.18,1717.88,1719.07,1718.92,1719.62,1719.92,1720.78,1721.22,1721.88,1721.89,1720.92,1722.70,1724.58,1726.64,1727.07,1726.85,1728.08,1728.37,1728.64,1728.94,1729.75,1731.84,1732.53,1732.60,1732.93,1733.93,1736.34,1739.02,1742.10,1744.09,1746.62,1755.24,0.00,0.00,0.00,0.00,0.00,0.00,0.00,0.00,0.00,678.30,717.75,724.28,725.66,728.63,729.28,731.38,730.97,731.69,731.42,728.99,727.51,726.68,725.55,723.08,721.98,721.54,721.98,721.20,721.83,720.09,720.73,720.73,720.50,718.90,717.37,718.34,718.98,718.11,715.92,715.06,715.40,715.11,714.50,714.98,716.23,717.74,719.02,720.73,721.43,723.01,722.99,724.29,725.73,728.68,731.66,734.01,737.09,738.98,740.83,742.28,743.45,745.16,746.63,750.30,757.37,766.79,772.31,765.88,748.37,737.30,727.01,713.94,702.63,695.81,692.60,689.40,686.23,683.12,680.23,677.87,676.91,677.06,673.65,671.67,668.30,668.98,666.54,666.63,666.40,665.85,664.95,665.44,666.24,665.27,663.21,662.21,663.18,664.29,665.36,665.82,665.58,666.37,667.26,669.92,673.41,674.77,677.13,677.02,677.59,677.64,680.87,684.27,686.36,687.57,689.83,693.00,696.05,700.16,703.38,706.85,709.89,713.95,716.79,717.82,718.94,719.44,722.09,721.28,722.95,723.78,727.46,730.05,737.70,755.57,776.97,785.70,785.22,786.99,786.22,784.50,780.99,782.21,783.91,785.02,783.55,781.50,779.54,779.02,780.66,780.65,779.91,778.24,777.49,777.82,776.98,777.47,776.43,775.88,775.54,775.55,776.28,774.57,774.04,772.60,773.07,772.25,771.73,769.38,759.58,748.52,742.56,742.47,743.44,742.98,741.16,739.08,736.04,731.73,725.96,719.63,708.33,0.00,0.00,0.00,0.00,0.00,0.00,0.00,0.00,0.00,0.00,0.00,0.00,0.00,0.00,0.00,0.00,0.00,0.00,0.00,0.00,0.00,0.00,0.00,0.00,0.00,0.00,0.00,0.00,0.00,0.00,0.00,0.00,0.00,0.00,0.00,0.00,0.00,0.00,0.00,0.00,0.00,0.00,0.00,0.00,0.00,0.00,0.00,0.00,0.00,0.00,0.00,0.00,0.00,0.00,0.00,0.00,0.00,0.00,0.00,0.00,0.00,0.00,0.00,0.00,0.00,0.00,0.00,0.00,0.00,0.00,0.00,0.00,0.00,0.00,0.00,0.00,0.00,0.00,0.00,0.00,0.00,0.00,0.00,0.00,0.00,0.00,0.00,0.00,0.00,0.00,0.00,0.00,0.00,0.00,0.00,0.00,0.00,0.00,0.00,0.00,0.00,0.00,0.00,0.00,0.00
0.00,0.00,0.00,0.00,0.00,0.00,0.00,0.00,0.00,0.00,0.00,0.00,0.00,0.00,0.00,0.00,0.00,0.00,0.00,0.00,0.00,0.00,0.00,0.00,0.00,0.00,0.00,0.00,0.00,0.00,0.00,1605.37,1630.03,1639.10,1644.69,1646.51,1649.24,1649.99,1648.55,1645.13,1644.88,1645.15,1649.60,1652.17,1655.08,1653.03,1653.10,1654.51,1657.61,1658.09,1657.58,1657.20,1657.99,1658.65,1658.23,1657.62,1658.24,1659.80,1660.67,1659.12,1656.58,1655.11,1655.99,1657.36,1659.15,1659.87,1660.46,1659.35,1659.22,1659.66,1659.46,1660.71,1660.64,1661.57,1661.55,1661.31,1661.24,1661.72,1661.45,1661.36,1660.39,1660.77,1661.89,1662.52,1663.50,1662.29,1660.69,1660.59,1659.37,1659.69,1659.46,1661.22,1660.77,1658.36,1655.53,1653.35,1650.59,0.00,0.00,0.00,0.00,0.00,0.00,0.00,0.00,0.00,0.00,0.00,0.00,0.00,0.00,0.00,0.00,0.00,0.00,0.00,0.00,0.00,0.00,0.00,0.00,0.00,0.00,0.00,0.00,0.00,0.00,0.00,0.00,0.00,0.00,0.00,0.00,0.00,0.00,1656.66,1667.05,1673.91,1678.09,1681.57,1683.27,1684.85,1685.40,1685.54,1687.55,1689.25,1690.19,1689.45,1690.95,1692.98,1694.19,1694.94,1695.78,1694.94,1695.31,1696.54,1699.90,1701.35,1701.39,1701.95,1702.32,1703.66,1704.47,1703.90,1703.05,1703.27,1705.28,1707.53,1707.51,1707.31,1707.89,1709.19,1709.27,1709.08,1710.08,1710.96,1711.82,1713.40,1715.75,1716.63,1717.26,1717.82,1718.17,1718.71,1718.44,1718.97,1720.31,1719.75,1721.54,1721.69,1722.94,1723.87,1723.65,1726.64,1726.73,1728.16,1727.49,1727.92,1729.78,1730.72,1731.07,1732.55,1735.53,1739.78,1742.00,1746.08,1747.28,1753.81,0.00,0.00,0.00,0.00,0.00,0.00,0.00,0.00,0.00,676.56,715.68,722.28,727.13,725.61,727.19,725.86,728.61,727.21,728.33,726.31,724.63,721.45,721.85,721.49,720.31,718.34,717.56,717.48,717.02,718.30,717.26,717.00,715.79,715.71,715.59,714.39,713.42,712.83,711.53,709.78,709.39,709.98,711.50,711.04,711.78,712.41,713.92,714.46,715.58,715.91,718.62,719.55,721.15,722.40,725.04,727.04,729.02,730.94,733.23,735.54,737.36,739.12,740.71,742.86,745.49,749.15,756.22,761.94,761.84,750.93,741.07,730.60,718.09,704.22,695.73,689.81,687.51,683.46,681.58,678.14,676.71,675.63,675.25,671.79,669.34,665.68,666.87,664.11,664.66,662.55,661.87,661.61,662.66,663.61,661.94,660.34,659.13,659.76,661.38,662.87,663.64,663.04,664.75,665.47,667.69,669.95,673.64,676.83,678.74,676.86,675.45,677.65,682.69,685.54,686.75,688.10,692.18,695.00,700.02,703.95,709.03,711.47,714.21,715.42,715.54,715.46,715.52,718.14,717.52,719.14,720.45,725.30,728.73,740.80,765.82,784.68,790.69,790.21,790.06,789.00,786.74,784.40,784.28,786.13,786.33,784.70,782.95,781.43,781.31,782.29,781.93,780.50,778.05,777.62,776.65,775.81,776.23,775.94,774.94,773.00,772.86,773.12,772.11,771.72,770.65,771.41,770.58,770.27,765.11,753.81,745.94,741.40,741.99,741.75,742.04,740.69,739.72,738.49,735.18,730.66,725.87,719.24,709.58,694.71,0.00,0.00,0.00,0.00,0.00,0.00,0.00,0.00,0.00,0.00,0.00,0.00,0.00,0.00,0.00,0.00,0.00,0.00,0.00,0.00,0.00,0.00,0.00,0.00,0.00,0.00,0.00,0.00,0.00,0.00,0.00,0.00,0.00,0.00,0.00,0.00,0.00,0.00,0.00,0.00,0.00,0.00,0.00,0.00,0.00,0.00,0.00,0.00,0.00,0.00,0.00,0.00,0.00,0.00,0.00,0.00,0.00,0.00,0.00,0.00,0.00,0.00,0.00,0.00,0.00,0.00,0.00,0.00,0.00,0.00,0.00,0.00,0.00,0.00,0.00,0.00,0.00,0.00,0.00,0.00,0.00,0.00,0.00,0.00,0.00,0.00,0.00,0.00,0.00,0.00,0.00,0.00,0.00,0.00,0.00,0.00,0.00,0.00,0.00,0.00,0.00,0.00,0.00
0.00,0.00,0.00,0.00,0.00,0.00,0.00,0.00,0.00,0.00,0.00,0.00,0.00,0.00,0.00,0.00,0.00,0.00,0.00,0.00,0.00,0.00,0.00,0.00,0.00,0.00,0.00,0.00,0.00,0.00,0.00,1591.23,1625.11,1639.21,1645.72,1647.65,1647.26,1648.63,1646.96,1647.56,1646.57,1648.10,1651.14,1653.76,1655.19,1653.29,1653.81,1654.72,1657.17,1658.30,1658.85,1658.61,1658.73,1659.57,1659.29,1659.34,1658.82,1659.99,1660.30,1660.75,1659.41,1658.23,1658.82,1659.96,1661.51,1662.52,1663.49,1662.74,1660.82,1660.07,1659.51,1661.56,1660.87,1662.75,1661.91,1662.03,1660.93,1661.48,1662.29,1662.91,1662.82,1661.90,1661.98,1662.05,1663.07,1663.07,1662.16,1663.01,1662.30,1662.33,1662.22,1662.45,1661.97,1659.99,1658.29,1657.86,1655.91,1654.78,1648.20,0.00,0.00,0.00,0.00,0.00,0.00,0.00,0.00,0.00,0.00,0.00,0.00,0.00,0.00,0.00,0.00,0.00,0.00,0.00,0.00,0.00,0.00,0.00,0.00,0.00,0.00,0.00,0.00,0.00,0.00,0.00,0.00,0.00,0.00,0.00,0.00,0.00,1650.38,1665.66,1674.48,1680.57,1682.18,1683.44,1684.00,1685.91,1686.87,1688.87,1689.85,1690.29,1691.65,1693.40,1694.41,1694.95,1695.97,1695.48,1695.78,1696.81,1699.26,1700.22,1700.36,1701.38,1702.90,1704.68,1706.07,1704.72,1703.56,1702.36,1704.41,1705.75,1707.69,1707.35,1709.20,1709.95,1710.38,1709.52,1710.49,1711.65,1712.84,1713.55,1716.15,1717.33,1718.65,1719.17,1719.14,1719.06,1717.82,1719.17,1721.24,1721.17,1722.68,1722.91,1724.33,1724.44,1724.44,1727.35,1727.17,1728.21,1727.38,1728.90,1730.17,1731.89,1733.68,1737.40,1740.57,1745.69,1749.43,1757.25,1763.18,0.00,0.00,0.00,0.00,0.00,0.00,0.00,0.00,685.91,697.11,713.97,724.12,727.39,729.61,727.47,727.98,725.52,726.30,725.19,726.83,725.88,724.76,721.69,720.30,720.16,719.85,719.09,716.89,716.81,716.88,719.81,719.85,718.89,715.74,714.47,713.61,713.32,711.79,712.34,710.17,708.30,708.08,711.98,714.11,714.11,712.72,713.51,714.20,714.89,715.25,716.79,718.78,720.84,720.64,722.95,725.29,728.02,728.75,730.40,731.95,735.50,738.36,741.36,741.70,743.08,744.95,747.77,751.82,756.14,758.48,756.46,750.07,741.25,728.59,712.61,702.14,693.29,691.18,686.37,684.14,680.21,680.18,678.73,677.75,673.72,671.78,668.90,668.90,667.19,666.70,664.90,663.04,664.85,665.87,667.53,664.52,663.62,662.08,663.43,664.45,665.90,665.49,665.58,667.76,669.69,671.60,672.52,676.40,680.56,683.41,681.96,680.15,682.26,686.30,690.09,692.14,694.88,698.52,702.21,706.24,710.44,714.35,717.11,718.85,719.71,718.36,718.54,718.63,720.57,720.67,721.84,723.86,727.74,732.42,748.15,775.73,789.90,794.27,793.92,794.08,792.82,791.72,790.12,790.31,791.35,790.86,789.12,787.46,786.10,785.40,785.09,785.60,783.89,782.26,780.92,779.88,777.82,778.01,777.76,777.15,774.83,774.53,774.10,772.73,772.62,772.24,773.34,772.71,772.33,763.31,753.24,747.54,745.36,744.43,743.55,743.73,742.28,740.32,738.81,736.57,734.50,731.57,728.13,722.20,713.39,700.07,0.00,0.00,0.00,0.00,0.00,0.00,0.00,0.00,0.00,0.00,0.00,0.00,0.00,0.00,0.00,0.00,0.00,0.00,0.00,0.00,0.00,0.00,0.00,0.00,0.00,0.00,0.00,0.00,0.00,0.00,0.00,0.00,0.00,0.00,0.00,0.00,0.00,0.00,0.00,0.00,0.00,0.00,0.00,0.00,0.00,0.00,0.00,0.00,0.00,0.00,0.00,0.00,0.00,0.00,0.00,0.00,0.00,0.00,0.00,0.00,0.00,0.00,0.00,0.00,0.00,0.00,0.00,0.00,0.00,0.00,0.00,0.00,0.00,0.00,0.00,0.00,0.00,0.00,0.00,0.00,0.00,0.00,0.00,0.00,0.00,0.00,0.00,0.00,0.00,0.00,0.00,0.00,0.00,0.00,0.00,0.00,0.00,0.00,0.00,0.00,0.00,0.00
0.00,0.00,0.00,0.00,0.00,0.00,0.00,0.00,0.00,0.00,0.00,0.00,0.00,0.00,0.00,0.00,0.00,0.00,0.00,0.00,0.00,0.00,0.00,0.00,0.00,0.00,0.00,0.00,0.00,0.00,0.00,0.00,1620.51,1637.63,1644.56,1646.62,1645.49,1645.87,1645.59,1646.75,1646.91,1648.15,1650.08,1651.54,1651.72,1650.81,1651.06,1651.44,1653.46,1654.17,1655.37,1655.41,1656.51,1657.64,1657.25,1655.58,1655.23,1655.42,1657.09,1656.89,1657.47,1656.82,1657.70,1658.16,1659.50,1659.59,1660.81,1659.10,1657.97,1657.15,1657.27,1658.45,1658.12,1659.16,1658.53,1657.45,1657.42,1657.80,1659.32,1660.67,1661.55,1661.35,1660.17,1660.03,1660.58,1661.44,1661.08,1661.87,1660.95,1660.06,1660.13,1659.67,1659.99,1657.88,1657.53,1656.74,1654.87,1655.52,1654.22,1650.38,0.00,0.00,0.00,0.00,0.00,0.00,0.00,0.00,0.00,0.00,0.00,0.00,0.00,0.00,0.00,0.00,0.00,0.00,0.00,0.00,0.00,0.00,0.00,0.00,0.00,0.00,0.00,0.00,0.00,0.00,0.00,0.00,0.00,0.00,0.00,0.00,0.00,1642.84,1663.71,1672.64,1677.20,1678.40,1679.82,1682.36,1683.70,1685.35,1686.89,1688.44,1689.80,1690.27,1691.49,1690.94,1691.81,1691.33,1693.63,1696.46,1698.57,1698.54,1697.52,1697.62,1699.02,1699.89,1701.67,1701.24,1701.81,1701.15,1702.94,1703.59,1705.31,1704.41,1706.68,1707.03,1709.04,1708.69,1709.34,1709.84,1710.58,1711.87,1714.03,1715.91,1717.85,1718.55,1718.04,1716.87,1715.16,1716.29,1719.22,1720.15,1720.97,1720.29,1720.75,1721.55,1722.25,1724.52,1724.68,1725.72,1725.90,1727.24,1728.70,1730.55,1733.50,1738.83,1743.93,1750.58,1759.32,0.00,0.00,0.00,0.00,0.00,0.00,0.00,0.00,0.00,701.31,708.09,712.52,717.86,724.59,726.22,727.29,724.30,723.98,722.61,722.51,721.06,721.85,721.83,720.94,717.75,715.44,715.64,715.26,714.57,713.36,713.55,714.24,715.48,714.59,712.74,709.72,708.76,707.89,707.37,705.75,705.50,704.57,703.49,703.66,705.65,706.48,706.93,706.91,708.78,709.85,710.37,710.77,712.32,714.40,716.28,716.61,718.73,722.18,724.32,726.09,726.20,727.85,730.58,733.70,737.89,739.21,740.90,742.43,744.99,748.00,750.62,752.08,751.59,748.67,744.18,734.55,716.43,704.26,692.96,689.76,682.93,681.08,678.66,679.58,677.83,675.70,673.20,671.57,669.84,668.10,666.01,664.09,662.40,661.51,662.77,663.79,664.68,663.46,662.86,662.19,662.94,664.19,664.86,664.68,665.02,668.01,670.67,672.86,672.50,675.59,678.34,681.45,680.41,681.44,683.22,687.13,689.92,693.45,697.12,700.42,704.38,707.81,712.16,714.66,716.22,717.33,717.97,717.42,717.28,717.05,717.83,717.97,719.46,722.64,727.36,732.35,748.31,776.73,790.39,794.61,794.51,794.35,793.84,793.07,791.80,790.77,790.54,789.72,788.79,787.51,786.27,784.48,784.59,784.81,783.35,781.34,780.05,778.67,776.42,776.45,776.46,775.74,773.61,772.96,772.24,770.22,771.16,770.89,771.78,769.48,765.31,754.45,746.53,744.42,743.23,742.81,740.92,740.89,740.04,739.27,738.44,736.21,734.02,729.93,726.91,723.88,720.03,711.19,698.17,0.00,0.00,0.00,0.00,0.00,0.00,0.00,0.00,0.00,0.00,0.00,0.00,0.00,0.00,0.00,0.00,0.00,0.00,0.00,0.00,0.00,0.00,0.00,0.00,0.00,0.00,0.00,0.00,0.00,0.00,0.00,0.00,0.00,0.00,0.00,0.00,0.00,0.00,0.00,0.00,0.00,0.00,0.00,0.00,0.00,0.00,0.00,0.00,0.00,0.00,0.00,0.00,0.00,0.00,0.00,0.00,0.00,0.00,0.00,0.00,0.00,0.00,0.00,0.00,0.00,0.00,0.00,0.00,0.00,0.00,0.00,0.00,0.00,0.00,0.00,0.00,0.00,0.00,0.00,0.00,0.00,0.00,0.00,0.00,0.00,0.00,0.00,0.00,0.00,0.00,0.00,0.00,0.00,0.00,0.00,0.00,0.00,0.00,0.00,0.00,0.00
0.00,0.00,0.00,0.00,0.00,0.00,0.00,0.00,0.00,0.00,0.00,0.00,0.00,0.00,0.00,0.00,0.00,0.00,0.00,0.00,0.00,0.00,0.00,0.00,0.00,0.00,0.00,0.00,0.00,0.00,0.00,0.00,1619.68,1638.66,1644.86,1648.63,1647.26,1647.32,1646.03,1647.55,1649.02,1651.68,1652.72,1653.22,1652.92,1653.34,1652.54,1652.40,1652.69,1653.63,1655.03,1656.62,1657.89,1659.11,1658.08,1656.70,1656.21,1656.08,1657.27,1657.86,1660.95,1661.35,1661.28,1660.76,1659.92,1660.32,1659.40,1659.47,1658.11,1658.29,1658.52,1659.21,1658.46,1659.38,1658.87,1658.56,1657.81,1658.32,1659.97,1661.88,1662.58,1663.15,1660.79,1660.11,1659.00,1661.25,1661.72,1662.91,1662.10,1661.16,1661.31,1659.94,1659.51,1657.55,1657.20,1657.54,1656.28,1658.17,1657.76,1658.26,1653.39,1645.23,0.00,0.00,0.00,0.00,0.00,0.00,0.00,0.00,0.00,0.00,0.00,0.00,0.00,0.00,0.00,0.00,0.00,0.00,0.00,0.00,0.00,0.00,0.00,0.00,0.00,0.00,0.00,0.00,0.00,0.00,0.00,0.00,0.00,0.00,0.00,0.00,1629.57,1662.75,1671.86,1676.46,1679.15,1681.65,1683.36,1685.12,1686.41,1689.29,1690.57,1691.37,1691.47,1691.32,1692.13,1691.85,1693.96,1696.03,1698.56,1698.24,1698.39,1697.91,1699.19,1699.60,1701.56,1702.05,1703.13,1702.97,1703.74,1703.38,1704.62,1705.49,1707.81,1708.24,1710.15,1710.32,1710.79,1711.29,1712.35,1713.04,1714.02,1715.65,1717.82,1718.76,1718.69,1718.11,1717.49,1718.62,1720.42,1720.74,1721.74,1722.33,1723.46,1723.89,1724.13,1724.92,1725.05,1726.31,1727.85,1729.73,1732.36,1735.05,1739.73,1745.81,1753.63,0.00,0.00,0.00,0.00,0.00,0.00,0.00,0.00,0.00,677.23,704.85,717.09,720.47,723.05,724.61,727.02,727.77,726.84,726.18,725.20,725.36,723.85,722.87,722.15,722.59,722.91,721.48,718.47,715.89,714.18,713.86,714.54,714.64,715.19,715.10,714.86,712.85,710.49,709.67,707.95,706.63,704.74,703.86,704.28,703.24,704.21,705.22,705.15,705.32,704.79,706.75,708.06,709.51,709.42,710.82,712.66,715.95,716.39,718.65,722.81,726.42,728.06,727.68,728.83,731.29,734.51,738.27,739.79,741.14,742.96,746.19,749.20,751.36,753.07,752.97,751.42,749.35,743.08,727.25,711.63,698.70,693.75,687.99,685.44,683.45,682.65,681.63,679.20,677.69,676.25,675.03,672.50,669.13,666.10,665.53,664.93,665.78,665.54,667.01,666.67,667.07,666.83,668.03,668.06,668.25,667.75,669.44,671.52,674.87,676.57,677.85,680.21,683.43,685.65,685.83,688.76,691.66,695.17,696.99,700.19,703.12,705.77,710.53,713.95,717.40,718.51,719.39,719.76,720.18,720.79,721.08,720.80,721.07,721.90,723.48,726.05,729.84,734.12,750.63,779.88,793.48,796.91,796.57,797.77,797.04,797.13,794.81,794.37,793.30,792.78,791.88,789.92,788.84,787.17,787.65,788.51,787.61,785.82,783.47,781.65,779.19,777.94,776.82,775.43,773.41,772.49,771.68,770.07,771.88,772.81,773.49,769.28,760.55,750.29,745.34,744.39,744.61,744.07,742.40,741.82,740.95,740.84,739.54,738.32,736.31,732.11,730.73,729.16,727.02,720.66,711.53,699.69,684.37,670.91,0.00,0.00,0.00,0.00,0.00,0.00,0.00,0.00,0.00,0.00,0.00,0.00,0.00,0.00,0.00,0.00,0.00,0.00,0.00,0.00,0.00,0.00,0.00,0.00,0.00,0.00,0.00,0.00,0.00,0.00,0.00,0.00,0.00,0.00,0.00,0.00,0.00,0.00,0.00,0.00,0.00,0.00,0.00,0.00,0.00,0.00,0.00,0.00,0.00,0.00,0.00,0.00,0.00,0.00,0.00,0.00,0.00,0.00,0.00,0.00,0.00,0.00,0.00,0.00,0.00,0.00,0.00,0.00,0.00,0.00,0.00,0.00,0.00,0.00,0.00,0.00,0.00,0.00,0.00,0.00,0.00,0.00,0.00,0.00,0.00,0.00,0.00,0.00,0.00,0.00,0.00,0.00,0.00,0.00,0.00,0.00,0.00,0.00
0.00,0.00,0.00,0.00,0.00,0.00,0.00,0.00,0.00,0.00,0.00,0.00,0.00,0.00,0.00,0.00,0.00,0.00,0.00,0.00,0.00,0.00,0.00,0.00,0.00,0.00,0.00,0.00,0.00,0.00,0.00,0.00,1623.06,1637.52,1644.16,1645.71,1645.83,1644.86,1646.08,1644.62,1646.57,1646.98,1648.36,1648.82,1650.17,1650.42,1649.78,1649.20,1650.23,1651.21,1652.47,1653.79,1654.70,1655.92,1655.80,1654.66,1653.92,1652.98,1654.49,1655.15,1658.01,1657.68,1657.33,1656.85,1656.10,1655.92,1654.76,1655.59,1655.83,1656.28,1656.80,1656.31,1656.23,1656.47,1656.45,1656.44,1655.70,1656.72,1657.30,1659.07,1660.06,1661.93,1661.26,1660.05,1658.10,1658.90,1659.30,1660.36,1659.38,1659.10,1659.83,1659.55,1658.48,1655.83,1655.07,1655.43,1655.87,1656.91,1656.93,1657.40,1656.32,1652.73,1645.02,0.00,0.00,0.00,0.00,0.00,0.00,0.00,0.00,0.00,0.00,0.00,0.00,0.00,0.00,0.00,0.00,0.00,0.00,0.00,0.00,0.00,0.00,0.00,0.00,0.00,0.00,0.00,0.00,0.00,0.00,0.00,0.00,0.00,0.00,0.00,0.00,0.00,1659.61,1669.17,1675.05,1678.77,1680.59,1681.14,1682.10,1684.35,1686.58,1687.93,1688.62,1688.82,1689.05,1689.98,1691.81,1694.83,1697.27,1696.86,1696.42,1695.13,1696.45,1696.12,1697.39,1697.84,1700.16,1701.77,1702.76,1702.59,1702.71,1703.93,1705.21,1705.88,1707.59,1708.72,1709.77,1710.66,1710.72,1710.89,1711.05,1712.25,1713.88,1714.65,1715.95,1716.65,1717.00,1717.66,1718.82,1719.97,1720.63,1721.14,1721.05,1721.79,1721.71,1723.23,1724.13,1725.84,1728.99,1731.55,1735.75,1737.21,1741.14,1748.89,0.00,0.00,0.00,0.00,0.00,0.00,0.00,0.00,0.00,675.18,702.76,713.24,720.39,723.17,725.08,723.92,723.74,722.36,721.16,721.13,721.98,723.65,723.33,721.62,719.36,718.86,719.35,718.84,716.38,713.12,711.63,710.87,712.56,711.50,711.44,710.40,710.86,710.22,708.40,706.03,703.63,701.36,699.71,698.04,699.79,699.92,700.59,699.62,699.08,697.95,698.27,699.76,701.80,703.28,703.84,705.16,707.75,711.33,714.05,715.87,719.78,721.96,723.43,722.67,724.31,726.86,730.16,732.14,734.79,736.43,739.64,742.38,745.31,746.50,747.36,747.84,747.36,745.07,741.72,731.77,715.80,701.85,694.47,688.94,684.29,681.97,679.80,679.60,677.44,676.80,675.91,674.92,673.03,669.22,665.77,664.09,662.98,662.26,662.19,663.05,663.51,664.97,665.84,667.14,666.50,667.05,667.50,669.66,671.85,674.71,676.48,678.31,681.25,684.24,686.44,687.21,690.12,693.12,696.45,698.25,700.28,702.53,706.27,711.17,714.02,715.27,715.97,716.71,716.87,717.19,718.99,719.17,719.39,718.70,719.48,721.36,724.09,728.13,731.45,745.23,776.05,791.49,795.92,796.74,796.87,796.13,794.85,793.81,792.68,792.45,791.33,791.19,788.91,788.74,787.62,787.95,786.63,785.15,782.65,780.89,778.54,775.94,773.40,772.07,770.61,767.89,763.31,761.44,762.24,767.40,770.29,770.64,763.52,750.83,744.05,740.71,739.32,737.99,738.21,737.82,737.80,737.76,738.20,737.31,734.69,731.63,727.82,726.66,726.12,725.50,722.23,715.17,707.10,698.82,692.04,685.33,676.49,668.08,0.00,0.00,0.00,0.00,0.00,0.00,0.00,0.00,0.00,0.00,0.00,0.00,0.00,0.00,0.00,0.00,0.00,0.00,0.00,0.00,0.00,0.00,0.00,0.00,0.00,0.00,0.00,0.00,0.00,0.00,0.00,0.00,0.00,0.00,0.00,0.00,0.00,0.00,0.00,0.00,0.00,0.00,0.00,0.00,0.00,0.00,0.00,0.00,0.00,0.00,0.00,0.00,0.00,0.00,0.00,0.00,0.00,0.00,0.00,0.00,0.00,0.00,0.00,0.00,0.00,0.00,0.00,0.00,0.00,0.00,0.00,0.00,0.00,0.00,0.00,0.00,0.00,0.00,0.00,0.00,0.00,0.00,0.00,0.00,0.00,0.00,0.00,0.00,0.00,0.00,0.00,0.00,0.00,0.00,0.00
0.00,0.00,0.00,0.00,0.00,0.00,0.00,0.00,0.00,0.00,0.00,0.00,0.00,0.00,0.00,0.00,0.00,0.00,0.00,0.00,0.00,0.00,0.00,0.00,0.00,0.00,0.00,0.00,0.00,0.00,0.00,0.00,1620.27,1637.04,1642.96,1643.65,1643.28,1644.02,1645.42,1645.49,1647.66,1648.17,1648.90,1647.88,1649.81,1651.57,1652.38,1652.33,1651.53,1653.61,1652.68,1655.25,1654.58,1656.83,1655.76,1655.41,1654.11,1653.10,1653.85,1655.20,1657.66,1657.70,1657.15,1657.50,1656.49,1656.95,1655.76,1657.13,1656.72,1657.16,1657.68,1657.36,1657.40,1657.73,1658.41,1658.81,1658.25,1659.12,1659.43,1660.18,1660.86,1661.83,1661.81,1660.96,1658.80,1659.13,1658.69,1660.51,1659.96,1660.28,1660.32,1659.52,1659.03,1657.79,1657.29,1657.56,1658.17,1659.25,1658.63,1658.31,1658.41,1657.50,1651.88,1644.08,0.00,0.00,0.00,0.00,0.00,0.00,0.00,0.00,0.00,0.00,0.00,0.00,0.00,0.00,0.00,0.00,0.00,0.00,0.00,0.00,0.00,0.00,0.00,0.00,0.00,0.00,0.00,0.00,0.00,0.00,0.00,0.00,0.00,0.00,0.00,0.00,0.00,1656.94,1668.18,1675.00,1679.64,1681.59,1682.35,1683.81,1685.87,1687.80,1688.70,1689.42,1690.71,1692.50,1693.48,1695.07,1696.22,1695.58,1694.90,1694.14,1695.78,1696.99,1698.63,1698.71,1699.16,1700.58,1701.47,1701.98,1702.76,1705.70,1706.34,1707.40,1707.96,1710.15,1710.00,1710.74,1710.40,1710.91,1711.96,1712.90,1713.45,1713.81,1716.52,1718.73,1719.58,1719.73,1720.71,1721.77,1721.51,1721.41,1721.22,1722.16,1723.13,1725.82,1727.36,1729.58,1732.22,1736.29,1740.12,1742.99,1750.19,0.00,0.00,0.00,0.00,0.00,0.00,0.00,0.00,629.72,686.59,706.64,716.37,721.32,725.28,727.60,727.10,724.85,722.89,721.29,720.50,720.71,722.12,723.97,724.02,722.98,719.92,719.51,720.10,719.73,717.49,713.66,712.88,711.51,712.22,710.88,711.12,711.66,712.18,711.90,709.70,707.34,704.69,702.35,699.20,697.75,699.29,700.86,700.95,699.75,699.29,697.90,697.38,697.25,697.74,699.90,701.30,704.88,707.86,711.77,714.25,715.99,719.13,721.55,722.04,722.19,723.90,727.43,731.48,733.13,735.66,736.77,740.07,742.58,745.31,746.39,746.88,747.73,746.85,744.78,741.84,738.21,725.28,711.33,700.70,695.65,690.13,686.38,682.68,681.52,679.80,679.41,678.45,677.17,676.08,673.38,670.80,669.56,667.93,667.43,666.25,667.63,668.02,669.06,669.61,669.66,669.39,670.17,671.59,674.11,675.87,679.11,681.63,685.32,688.69,692.59,694.16,695.02,696.21,698.58,703.05,705.69,708.52,709.50,713.36,716.31,717.27,717.02,716.66,717.01,717.30,718.26,719.79,720.25,720.94,721.23,722.18,724.55,726.22,729.05,731.15,744.46,774.36,792.23,797.40,799.76,799.79,798.74,797.52,796.85,795.77,795.01,793.54,792.76,790.67,790.68,789.58,788.74,786.98,785.97,783.65,781.13,778.38,774.95,771.32,769.13,767.69,764.22,757.30,752.32,753.99,762.47,769.79,769.39,759.11,746.84,741.73,740.21,737.26,735.68,736.76,738.41,739.15,737.18,736.47,735.29,734.21,732.64,729.86,728.20,726.57,726.04,723.79,718.07,712.60,708.88,705.33,702.17,695.66,690.54,681.33,669.62,0.00,0.00,0.00,0.00,0.00,0.00,0.00,0.00,0.00,0.00,0.00,0.00,0.00,0.00,0.00,0.00,0.00,0.00,0.00,0.00,0.00,0.00,0.00,0.00,0.00,0.00,0.00,0.00,0.00,0.00,0.00,0.00,0.00,0.00,0.00,0.00,0.00,0.00,0.00,0.00,0.00,0.00,0.00,0.00,0.00,0.00,0.00,0.00,0.00,0.00,0.00,0.00,0.00,0.00,0.00,0.00,0.00,0.00,0.00,0.00,0.00,0.00,0.00,0.00,0.00,0.00,0.00,0.00,0.00,0.00,0.00,0.00,0.00,0.00,0.00,0.00,0.00,0.00,0.00,0.00,0.00,0.00,0.00,0.00,0.00,0.00,0.00,0.00,0.00,0.00,0.00,0.00,0.00
0.00,0.00,0.00,0.00,0.00,0.00,0.00,0.00,0.00,0.00,0.00,0.00,0.00,0.00,0.00,0.00,0.00,0.00,0.00,0.00,0.00,0.00,0.00,0.00,0.00,0.00,0.00,0.00,0.00,0.00,0.00,0.00,1613.16,1632.10,1641.83,1641.18,1641.30,1641.77,1644.44,1645.92,1647.36,1647.22,1647.14,1646.08,1647.72,1648.74,1650.58,1650.05,1650.26,1651.79,1651.20,1653.06,1651.44,1652.97,1651.59,1652.18,1651.26,1649.89,1650.78,1650.98,1652.82,1651.58,1652.69,1653.11,1654.02,1654.82,1655.82,1656.05,1655.67,1654.58,1655.51,1654.76,1655.01,1654.54,1656.24,1656.78,1657.50,1657.14,1657.52,1657.05,1658.69,1659.51,1660.98,1659.38,1658.30,1657.26,1656.81,1658.09,1658.41,1659.68,1659.55,1658.96,1658.42,1657.78,1657.84,1657.43,1657.17,1657.06,1656.58,1655.66,1656.25,1656.08,1653.20,1648.51,1643.48,0.00,0.00,0.00,0.00,0.00,0.00,0.00,0.00,0.00,0.00,0.00,0.00,0.00,0.00,0.00,0.00,0.00,0.00,0.00,0.00,0.00,0.00,0.00,0.00,0.00,0.00,0.00,0.00,0.00,0.00,0.00,0.00,0.00,0.00,0.00,0.00,0.00,1652.35,1665.58,1672.17,1676.89,1679.19,1680.29,1681.31,1681.83,1683.55,1685.17,1686.51,1688.03,1689.03,1691.87,1693.56,1692.68,1692.12,1691.74,1694.35,1695.29,1696.35,1696.09,1696.40,1698.36,1699.62,1700.41,1701.07,1703.06,1703.63,1703.83,1705.11,1707.96,1708.37,1707.68,1707.05,1708.04,1709.63,1710.71,1711.19,1711.77,1713.38,1714.70,1715.64,1716.22,1718.35,1719.69,1719.41,1718.29,1718.12,1719.25,1720.99,1723.88,1726.12,1729.78,1733.87,1739.78,1745.10,1751.84,0.00,0.00,0.00,0.00,0.00,0.00,0.00,0.00,672.36,701.54,709.64,714.66,720.29,720.28,722.20,723.22,722.49,720.69,719.19,718.09,716.46,714.95,716.96,718.94,720.07,718.99,716.99,717.28,716.42,715.54,713.29,711.07,710.40,708.78,708.79,707.21,706.89,707.25,707.31,707.31,704.72,701.73,698.93,696.70,695.03,693.97,695.66,696.82,696.98,695.05,694.27,692.93,693.33,693.12,692.24,693.55,695.29,699.64,701.57,704.61,708.65,711.96,714.75,714.86,715.34,716.30,719.77,723.27,727.32,728.39,732.36,734.03,737.91,739.68,741.60,741.99,741.24,742.18,741.33,738.13,734.52,733.58,728.67,717.30,703.13,695.27,688.99,685.44,681.83,679.79,678.00,677.57,675.99,674.70,674.19,673.48,671.40,670.48,669.03,668.74,666.61,666.52,667.57,668.94,669.74,668.05,668.63,669.68,672.39,674.77,678.05,681.64,685.25,688.41,690.58,693.12,694.69,696.74,697.78,700.55,705.02,707.97,710.67,711.34,713.40,714.26,713.88,713.78,712.55,712.91,713.25,714.96,717.06,717.99,719.13,718.91,719.96,721.81,723.38,725.97,729.54,739.14,767.89,788.49,795.79,798.22,797.66,797.01,795.48,795.15,793.36,792.82,791.28,790.76,789.64,789.90,788.75,787.81,784.78,782.26,778.33,776.24,773.47,770.74,766.70,764.94,760.59,753.34,744.53,739.81,740.92,749.82,760.39,757.95,747.17,737.28,734.79,734.93,732.66,731.29,732.19,734.75,735.32,732.92,731.50,730.61,729.64,728.81,726.35,724.01,721.03,720.49,718.16,714.59,711.44,709.75,707.45,705.15,701.77,699.33,693.65,685.51,674.29,0.00,0.00,0.00,0.00,0.00,0.00,0.00,0.00,0.00,0.00,0.00,0.00,0.00,0.00,0.00,0.00,0.00,0.00,0.00,0.00,0.00,0.00,0.00,0.00,0.00,0.00,0.00,0.00,0.00,0.00,0.00,0.00,0.00,0.00,0.00,0.00,0.00,0.00,0.00,0.00,0.00,0.00,0.00,0.00,0.00,0.00,0.00,0.00,0.00,0.00,0.00,0.00,0.00,0.00,0.00,0.00,0.00,0.00,0.00,0.00,0.00,0.00,0.00,0.00,0.00,0.00,0.00,0.00,0.00,0.00,0.00,0.00,0.00,0.00,0.00,0.00,0.00,0.00,0.00,0.00,0.00,0.00,0.00,0.00,0.00,0.00,0.00,0.00,0.00,0.00,0.00,0.00
0.00,0.00,0.00,0.00,0.00,0.00,0.00,0.00,0.00,0.00,0.00,0.00,0.00,0.00,0.00,0.00,0.00,0.00,0.00,0.00,0.00,0.00,0.00,0.00,0.00,0.00,0.00,0.00,0.00,0.00,0.00,0.00,0.00,1625.77,1638.75,1641.00,1641.73,1644.12,1646.92,1650.90,1651.74,1651.61,1650.11,1648.36,1648.10,1649.29,1650.68,1651.23,1650.51,1651.45,1650.04,1651.90,1651.34,1653.97,1651.80,1652.84,1652.73,1653.05,1652.76,1652.61,1652.95,1652.91,1652.66,1654.45,1655.13,1656.77,1657.49,1656.31,1655.72,1654.61,1656.20,1655.31,1655.91,1655.59,1658.06,1657.98,1659.11,1657.33,1658.29,1657.51,1658.60,1658.87,1659.39,1660.08,1659.97,1659.65,1657.78,1658.52,1659.67,1661.57,1660.38,1659.11,1658.58,1658.65,1658.36,1658.28,1657.62,1658.21,1657.22,1657.06,1657.21,1658.31,1655.70,1653.20,1648.90,1646.06,0.00,0.00,0.00,0.00,0.00,0.00,0.00,0.00,0.00,0.00,0.00,0.00,0.00,0.00,0.00,0.00,0.00,0.00,0.00,0.00,0.00,0.00,0.00,0.00,0.00,0.00,0.00,0.00,0.00,0.00,0.00,0.00,0.00,0.00,0.00,0.00,0.00,1647.82,1664.30,1673.46,1679.39,1682.03,1681.85,1681.68,1682.83,1685.46,1687.26,1688.47,1689.82,1691.92,1693.58,1693.42,1693.82,1693.88,1695.62,1696.07,1696.89,1697.25,1698.36,1699.28,1699.44,1698.75,1700.49,1702.98,1705.27,1704.93,1705.84,1707.78,1708.03,1707.35,1707.34,1708.69,1710.44,1711.89,1713.33,1713.29,1713.66,1714.37,1716.27,1717.52,1719.69,1720.48,1719.90,1718.04,1718.16,1718.87,1721.85,1725.03,1729.26,1734.29,1738.59,1747.72,0.00,0.00,0.00,0.00,0.00,0.00,0.00,0.00,0.00,686.43,708.03,716.27,720.97,724.15,724.85,723.76,724.51,724.68,721.85,720.58,721.18,721.85,719.45,717.11,717.06,718.19,718.76,719.09,718.44,718.91,717.50,716.74,715.09,713.35,711.63,709.57,709.10,707.62,705.70,706.78,706.48,706.81,703.10,700.89,698.98,696.61,694.78,692.98,695.07,696.45,697.44,695.35,694.12,692.80,692.25,692.05,690.41,691.83,693.54,697.67,699.03,702.29,705.45,709.68,712.37,714.34,715.41,716.99,720.97,723.46,727.95,729.48,733.59,735.59,738.53,740.64,742.36,743.39,742.88,743.00,741.42,737.94,733.73,732.46,732.22,725.94,712.78,702.27,695.65,692.16,688.49,685.16,682.44,681.51,679.36,677.53,677.45,677.92,677.54,676.08,674.87,674.76,673.24,672.70,673.59,674.03,674.78,672.97,674.13,675.57,678.74,681.41,685.54,690.15,695.18,698.05,698.35,699.35,699.73,701.90,704.78,708.31,713.04,713.96,716.71,715.12,714.89,714.05,714.43,714.62,713.53,715.08,716.10,717.98,717.55,718.37,719.00,720.63,722.63,724.31,725.28,727.91,732.50,740.90,764.34,788.02,797.46,799.40,800.23,799.11,798.57,796.28,795.19,794.55,793.98,792.86,791.87,791.66,789.58,787.73,784.22,782.52,777.88,775.94,772.13,770.79,766.77,763.56,753.43,742.29,736.55,735.51,735.24,741.69,747.83,744.71,737.40,733.60,733.00,734.79,733.27,733.14,732.65,734.19,733.78,731.81,730.65,730.43,731.16,730.98,729.20,726.17,722.50,721.23,718.32,716.43,713.60,712.14,709.65,708.76,707.95,706.45,702.75,696.52,689.73,680.58,668.37,649.09,0.00,0.00,0.00,0.00,0.00,0.00,0.00,0.00,0.00,0.00,0.00,0.00,0.00,0.00,0.00,0.00,0.00,0.00,0.00,0.00,0.00,0.00,0.00,0.00,0.00,0.00,0.00,0.00,0.00,0.00,0.00,0.00,0.00,0.00,0.00,0.00,0.00,0.00,0.00,0.00,0.00,0.00,0.00,0.00,0.00,0.00,0.00,0.00,0.00,0.00,0.00,0.00,0.00,0.00,0.00,0.00,0.00,0.00,0.00,0.00,0.00,0.00,0.00,0.00,0.00,0.00,0.00,0.00,0.00,0.00,0.00,0.00,0.00,0.00,0.00,0.00,0.00,0.00,0.00,0.00,0.00,0.00,0.00,0.00,0.00,0.00,0.00,0.00,0.00
0.00,0.00,0.00,0.00,0.00,0.00,0.00,0.00,0.00,0.00,0.00,0.00,0.00,0.00,0.00,0.00,0.00,0.00,0.00,0.00,0.00,0.00,0.00,0.00,0.00,0.00,0.00,0.00,0.00,0.00,0.00,0.00,0.00,1615.21,1634.35,1639.01,1641.59,1644.19,1646.53,1648.53,1648.94,1648.63,1648.58,1646.64,1646.37,1645.08,1646.48,1647.01,1648.74,1650.04,1650.19,1650.74,1650.03,1651.20,1649.63,1650.73,1651.14,1651.80,1650.59,1649.22,1649.51,1650.07,1650.43,1650.97,1651.12,1652.86,1653.59,1652.72,1652.50,1652.02,1653.99,1653.53,1653.17,1652.83,1654.61,1655.18,1656.34,1654.70,1655.57,1655.38,1656.26,1656.98,1657.20,1658.73,1659.14,1659.01,1657.32,1657.48,1658.09,1658.85,1657.55,1656.69,1656.75,1656.34,1656.36,1656.38,1656.67,1656.52,1655.54,1655.69,1655.62,1656.20,1654.71,1653.16,1650.62,1646.87,0.00,0.00,0.00,0.00,0.00,0.00,0.00,0.00,0.00,0.00,0.00,0.00,0.00,0.00,0.00,0.00,0.00,0.00,0.00,0.00,0.00,0.00,0.00,0.00,0.00,0.00,0.00,0.00,0.00,0.00,0.00,0.00,0.00,0.00,0.00,0.00,0.00,0.00,1640.57,1662.23,1671.69,1677.38,1678.40,1678.64,1679.60,1682.37,1683.45,1685.10,1686.26,1688.59,1690.33,1691.06,1692.39,1692.97,1694.39,1693.28,1693.51,1694.17,1696.92,1698.35,1698.37,1697.47,1698.49,1699.31,1701.81,1701.75,1703.79,1705.26,1706.78,1706.45,1706.52,1706.87,1708.39,1709.83,1711.59,1711.16,1710.93,1711.57,1714.00,1715.00,1716.42,1717.27,1717.24,1716.95,1717.20,1718.98,1721.58,1726.77,1731.60,1736.42,1742.72,0.00,0.00,0.00,0.00,0.00,0.00,0.00,0.00,0.00,687.03,707.85,714.11,718.12,721.13,721.92,721.66,720.61,722.05,722.07,718.04,716.47,717.18,718.26,715.86,714.48,714.54,715.37,715.62,716.32,716.19,715.46,713.68,712.78,711.54,710.32,709.26,707.61,706.35,702.69,701.45,701.01,701.14,699.61,698.07,696.50,695.49,693.24,691.44,687.83,688.96,689.65,692.66,691.53,690.78,688.26,687.02,687.54,688.29,689.06,689.67,691.64,693.26,695.82,698.03,700.70,703.81,707.21,710.77,713.93,718.20,720.69,724.76,725.67,729.83,731.43,734.64,736.44,738.13,739.01,737.98,738.08,736.35,732.87,728.68,727.28,729.12,727.47,720.40,708.45,699.44,693.64,690.33,687.24,685.51,683.13,681.24,678.17,677.91,676.57,676.84,675.48,674.78,674.23,673.66,672.90,673.31,674.52,675.81,676.53,677.86,680.54,683.86,686.35,690.18,694.14,697.66,699.60,698.78,699.97,700.86,703.70,707.66,710.12,711.99,711.57,713.18,711.68,710.07,709.80,711.86,712.18,712.10,713.22,715.08,715.84,715.92,717.26,718.03,719.30,720.86,722.17,722.87,725.29,730.67,737.16,756.55,781.98,795.09,796.99,798.66,797.36,795.69,793.06,791.94,792.00,790.54,789.62,788.65,788.69,786.28,784.33,779.68,777.16,772.57,770.17,765.01,765.20,762.75,755.02,739.89,730.82,728.89,727.28,724.73,726.12,729.48,729.78,728.44,727.67,729.36,731.02,731.02,731.29,730.73,730.84,729.35,728.05,727.07,726.53,724.89,723.87,722.73,721.82,718.77,715.84,712.62,712.40,710.91,709.72,706.96,707.03,707.45,706.25,703.54,698.83,694.14,687.51,678.72,664.46,644.46,0.00,0.00,0.00,0.00,0.00,0.00,0.00,0.00,0.00,0.00,0.00,0.00,0.00,0.00,0.00,0.00,0.00,0.00,0.00,0.00,0.00,0.00,0.00,0.00,0.00,0.00,0.00,0.00,0.00,0.00,0.00,0.00,0.00,0.00,0.00,0.00,0.00,0.00,0.00,0.00,0.00,0.00,0.00,0.00,0.00,0.00,0.00,0.00,0.00,0.00,0.00,0.00,0.00,0.00,0.00,0.00,0.00,0.00,0.00,0.00,0.00,0.00,0.00,0.00,0.00,0.00,0.00,0.00,0.00,0.00,0.00,0.00,0.00,0.00,0.00,0.00,0.00,0.00,0.00,0.00,0.00,0.00,0.00,0.00,0.00,0.00,0.00,0.00
0.00,0.00,0.00,0.00,0.00,0.00,0.00,0.00,0.00,0.00,0.00,0.00,0.00,0.00,0.00,0.00,0.00,0.00,0.00,0.00,0.00,0.00,0.00,0.00,0.00,0.00,0.00,0.00,0.00,0.00,0.00,0.00,0.00,1612.40,1631.57,1639.28,1642.14,1644.27,1646.46,1648.25,1649.03,1648.21,1647.87,1647.12,1647.41,1648.24,1648.53,1648.87,1649.02,1650.46,1650.86,1651.08,1650.97,1652.13,1651.49,1651.82,1652.06,1653.04,1651.90,1650.51,1650.71,1653.00,1652.18,1651.60,1649.73,1651.65,1651.89,1652.53,1651.18,1652.44,1652.82,1654.62,1654.29,1655.55,1656.16,1656.68,1657.21,1656.16,1656.48,1657.16,1656.85,1658.26,1657.32,1660.28,1659.18,1659.63,1657.30,1657.76,1658.23,1657.73,1656.13,1655.12,1656.90,1657.71,1658.35,1658.32,1658.62,1658.25,1656.50,1657.52,1657.59,1658.87,1656.49,1655.30,1651.86,1648.87,1641.56,0.00,0.00,0.00,0.00,0.00,0.00,0.00,0.00,0.00,0.00,0.00,0.00,0.00,0.00,0.00,0.00,0.00,0.00,0.00,0.00,0.00,0.00,0.00,0.00,0.00,0.00,0.00,0.00,0.00,0.00,0.00,0.00,0.00,0.00,0.00,0.00,0.00,0.00,1625.09,1662.33,1671.53,1676.33,1679.51,1681.52,1683.66,1684.01,1686.34,1688.44,1689.61,1689.99,1690.66,1692.45,1693.73,1694.62,1693.94,1693.73,1694.37,1696.44,1698.65,1699.10,1698.07,1699.09,1700.34,1703.35,1703.89,1705.55,1706.17,1707.77,1708.13,1708.92,1709.07,1710.92,1712.50,1713.83,1713.46,1712.83,1713.56,1714.83,1716.29,1717.62,1718.69,1718.66,1719.34,1720.74,1722.47,1726.21,1732.62,1739.18,1744.76,0.00,0.00,0.00,0.00,0.00,0.00,0.00,0.00,646.22,694.49,711.33,719.04,720.43,722.26,722.62,724.44,722.28,722.22,722.83,723.77,719.70,717.50,716.87,718.14,717.46,718.50,717.12,716.83,715.60,716.26,716.24,715.76,714.89,713.89,711.98,710.25,708.99,707.83,706.49,703.15,701.17,700.13,699.06,698.84,699.00,697.64,695.97,693.49,692.29,688.20,687.95,689.18,692.18,691.47,690.01,686.33,684.95,685.69,688.42,689.43,689.08,690.75,693.05,695.49,696.21,697.36,699.60,705.05,708.84,714.81,718.51,722.02,725.51,727.45,731.88,733.43,735.19,736.15,736.57,738.36,737.45,737.43,735.18,733.64,729.93,727.78,727.98,728.53,727.44,720.89,712.86,704.51,698.78,694.28,691.32,688.28,686.34,683.92,682.20,680.60,680.86,679.76,678.93,678.45,679.65,680.26,680.28,681.99,683.24,687.04,687.91,691.94,694.52,697.88,698.77,700.60,702.83,706.62,707.60,708.82,708.96,710.31,713.78,714.29,714.53,713.00,713.82,712.87,711.92,712.23,714.26,714.88,715.75,716.37,717.57,717.58,717.61,719.55,719.65,721.66,722.55,725.17,725.91,727.76,731.25,737.14,750.53,776.40,793.84,798.44,800.40,798.51,795.60,793.07,793.05,793.16,791.60,789.95,788.36,787.50,784.36,782.02,777.82,776.46,772.34,768.82,765.26,763.59,757.94,744.85,733.15,728.40,726.35,723.27,719.26,719.72,722.43,724.25,724.84,726.55,729.62,731.10,731.85,731.49,730.68,729.02,727.66,727.20,726.70,725.94,724.14,723.20,722.14,721.52,719.63,717.36,715.08,714.20,713.37,711.74,709.75,709.27,709.29,707.47,704.03,698.17,692.83,686.37,681.06,671.21,657.30,640.69,624.80,0.00,0.00,0.00,0.00,0.00,0.00,0.00,0.00,0.00,0.00,0.00,0.00,0.00,0.00,0.00,0.00,0.00,0.00,0.00,0.00,0.00,0.00,0.00,0.00,0.00,0.00,0.00,0.00,0.00,0.00,0.00,0.00,0.00,0.00,0.00,0.00,0.00,0.00,0.00,0.00,0.00,0.00,0.00,0.00,0.00,0.00,0.00,0.00,0.00,0.00,0.00,0.00,0.00,0.00,0.00,0.00,0.00,0.00,0.00,0.00,0.00,0.00,0.00,0.00,0.00,0.00,0.00,0.00,0.00,0.00,0.00,0.00,0.00,0.00,0.00,0.00,0.00,0.00,0.00,0.00,0.00,0.00,0.00,0.00,0.00,0.00
0.00,0.00,0.00,0.00,0.00,0.00,0.00,0.00,0.00,0.00,0.00,0.00,0.00,0.00,0.00,0.00,0.00,0.00,0.00,0.00,0.00,0.00,0.00,0.00,0.00,0.00,0.00,0.00,0.00,0.00,0.00,0.00,0.00,1607.30,1628.61,1637.99,1641.43,1641.46,1642.99,1643.64,1645.60,1646.25,1647.60,1647.04,1647.18,1646.99,1647.48,1646.63,1646.58,1646.83,1648.54,1649.45,1650.39,1650.36,1649.86,1649.76,1649.44,1649.87,1649.11,1647.92,1648.78,1650.81,1651.11,1649.52,1647.78,1649.78,1650.43,1651.76,1649.95,1651.25,1650.81,1652.30,1651.00,1650.73,1650.77,1651.33,1653.48,1653.58,1654.34,1654.37,1654.36,1655.73,1655.52,1656.43,1655.26,1656.60,1656.40,1657.39,1656.54,1655.43,1653.76,1653.09,1654.62,1655.80,1656.94,1657.21,1657.21,1656.33,1654.48,1655.33,1656.11,1657.54,1655.94,1654.56,1651.36,1647.56,1642.35,0.00,0.00,0.00,0.00,0.00,0.00,0.00,0.00,0.00,0.00,0.00,0.00,0.00,0.00,0.00,0.00,0.00,0.00,0.00,0.00,0.00,0.00,0.00,0.00,0.00,0.00,0.00,0.00,0.00,0.00,0.00,0.00,0.00,0.00,0.00,0.00,0.00,0.00,0.00,0.00,1658.13,1667.57,1674.52,1678.14,1681.27,1681.67,1683.77,1685.45,1686.40,1686.16,1686.44,1688.13,1691.14,1691.87,1692.31,1691.44,1692.47,1693.62,1696.81,1698.04,1697.59,1697.57,1698.32,1700.29,1700.49,1701.78,1702.24,1705.00,1705.74,1707.66,1707.60,1709.39,1710.50,1711.21,1711.78,1711.46,1711.73,1712.12,1713.06,1714.23,1714.87,1715.40,1717.73,1721.47,1725.26,1730.43,1737.31,0.00,0.00,0.00,0.00,0.00,0.00,0.00,0.00,0.00,650.68,695.97,710.46,717.62,720.05,719.69,719.20,718.41,718.82,717.26,716.82,717.77,718.83,717.13,714.97,713.63,713.27,713.99,715.97,716.43,715.75,714.35,713.00,712.36,711.75,710.92,709.48,706.82,705.60,704.87,703.88,702.85,698.96,698.12,695.51,696.15,694.87,695.20,693.51,692.37,691.72,690.26,686.48,685.23,685.51,687.59,686.23,684.69,682.02,681.01,681.48,683.56,682.86,681.19,681.22,684.07,686.11,689.14,690.36,693.77,697.73,702.44,709.52,714.08,718.65,721.14,723.87,727.49,729.51,730.94,732.00,732.60,733.84,732.97,732.86,731.15,729.72,725.72,722.68,721.71,722.44,723.89,722.83,720.76,714.85,707.95,700.65,696.38,692.34,689.60,686.65,683.86,680.88,679.65,679.98,681.11,680.83,681.81,682.84,684.83,687.48,690.26,693.40,694.73,697.45,700.74,704.31,704.91,705.49,706.38,710.68,712.15,712.47,712.31,712.43,713.77,711.72,711.02,709.90,710.22,710.45,710.44,710.93,712.75,712.75,714.73,713.19,714.78,714.88,717.44,718.88,718.77,718.92,719.65,722.80,724.21,725.36,728.09,732.90,743.21,765.76,785.78,793.44,795.46,794.56,791.45,789.69,788.89,787.98,786.07,785.08,784.48,783.55,780.21,777.19,773.93,773.23,772.44,768.70,760.93,751.91,736.82,725.76,717.83,716.86,717.64,718.13,716.30,715.45,717.01,718.79,720.30,721.49,724.07,724.56,726.63,726.02,725.98,723.72,723.56,723.84,723.73,722.38,719.50,717.87,716.80,716.24,715.26,713.44,711.22,709.27,708.78,707.94,705.69,703.63,703.59,702.35,698.83,692.27,687.66,683.00,679.10,672.16,664.18,654.00,645.84,641.24,637.82,631.87,623.07,0.00,0.00,0.00,0.00,0.00,0.00,0.00,0.00,0.00,0.00,0.00,0.00,0.00,0.00,0.00,0.00,0.00,0.00,0.00,0.00,0.00,0.00,0.00,0.00,0.00,0.00,0.00,0.00,0.00,0.00,0.00,0.00,0.00,0.00,0.00,0.00,0.00,0.00,0.00,0.00,0.00,0.00,0.00,0.00,0.00,0.00,0.00,0.00,0.00,0.00,0.00,0.00,0.00,0.00,0.00,0.00,0.00,0.00,0.00,0.00,0.00,0.00,0.00,0.00,0.00,0.00,0.00,0.00,0.00,0.00,0.00,0.00,0.00,0.00,0.00,0.00,0.00,0.00,0.00,0.00,0.00,0.00
0.00,0.00,0.00,0.00,0.00,0.00,0.00,0.00,0.00,0.00,0.00,0.00,0.00,0.00,0.00,0.00,0.00,0.00,0.00,0.00,0.00,0.00,0.00,0.00,0.00,0.00,0.00,0.00,0.00,0.00,0.00,0.00,0.00,1589.67,1623.32,1637.47,1641.29,1642.01,1643.32,1645.57,1645.79,1647.75,1648.19,1651.16,1649.83,1650.16,1648.96,1649.49,1648.87,1648.50,1648.80,1649.66,1650.19,1649.96,1650.14,1651.04,1651.26,1650.83,1649.74,1649.37,1650.15,1652.06,1651.57,1650.46,1648.97,1651.03,1651.22,1652.18,1650.60,1652.79,1651.37,1653.20,1651.45,1652.25,1651.55,1652.56,1653.67,1653.17,1653.25,1654.28,1654.38,1655.63,1654.94,1656.03,1655.22,1656.88,1656.82,1657.25,1656.55,1656.60,1656.26,1655.61,1655.72,1656.26,1656.85,1656.20,1655.71,1655.74,1656.41,1657.42,1657.54,1658.21,1657.48,1656.42,1653.10,1650.06,1645.78,0.00,0.00,0.00,0.00,0.00,0.00,0.00,0.00,0.00,0.00,0.00,0.00,0.00,0.00,0.00,0.00,0.00,0.00,0.00,0.00,0.00,0.00,0.00,0.00,0.00,0.00,0.00,0.00,0.00,0.00,0.00,0.00,0.00,0.00,0.00,0.00,0.00,0.00,0.00,0.00,0.00,1655.79,1668.90,1676.04,1680.36,1681.59,1682.95,1685.28,1685.97,1685.43,1684.88,1686.72,1690.34,1692.14,1693.18,1692.50,1693.17,1694.36,1696.57,1697.79,1697.85,1698.78,1699.98,1701.28,1701.33,1701.87,1701.71,1704.44,1705.41,1707.74,1707.27,1708.06,1708.78,1709.53,1711.86,1712.21,1713.94,1713.36,1714.88,1715.73,1716.96,1718.17,1720.47,1725.64,1730.13,1740.13,0.00,0.00,0.00,0.00,0.00,0.00,0.00,0.00,655.65,685.30,704.14,711.99,718.34,722.94,724.48,722.55,721.72,720.31,721.06,718.97,718.64,718.45,719.41,718.45,717.07,715.77,715.39,716.60,716.95,716.70,714.88,714.08,712.84,711.82,712.15,711.65,711.80,708.87,707.67,705.75,704.59,704.04,701.45,699.10,696.87,698.11,697.45,694.64,692.53,691.74,692.72,690.98,688.97,686.99,686.09,686.35,685.17,683.67,681.08,679.97,679.90,681.20,681.31,678.72,677.34,678.57,681.28,686.01,689.07,691.90,695.53,699.15,705.96,710.14,715.60,719.86,724.45,727.97,730.67,731.66,732.50,733.22,734.34,734.80,734.27,733.48,731.26,726.94,722.57,719.92,719.73,721.09,723.49,726.77,728.43,725.49,719.00,713.09,709.14,703.96,699.83,694.84,692.41,690.42,690.84,691.64,692.25,694.60,697.50,700.49,703.30,705.95,708.59,708.40,709.19,710.56,714.26,715.64,715.76,715.81,717.37,718.03,717.34,716.14,714.40,714.35,712.85,713.17,712.26,712.63,713.90,715.21,715.51,716.10,716.08,717.01,715.78,716.34,717.87,719.96,720.77,719.78,719.73,722.05,726.23,728.48,729.39,730.55,734.75,741.91,759.40,781.01,791.50,793.90,792.58,790.32,788.46,788.65,787.46,786.84,785.33,784.30,781.59,779.25,776.84,775.29,771.45,766.37,756.66,741.14,727.52,719.82,717.36,713.64,713.90,714.11,716.30,715.41,715.57,716.83,718.42,720.55,721.75,723.20,722.73,724.31,724.23,723.50,720.65,720.34,720.60,721.87,721.62,720.58,718.19,717.28,716.92,716.42,715.58,713.54,710.81,708.80,706.72,705.34,702.85,702.86,701.37,697.71,691.23,686.60,682.59,679.62,674.98,671.23,667.35,663.86,662.29,660.32,657.56,651.64,649.07,648.18,649.68,646.72,642.43,636.64,628.85,616.86,0.00,0.00,0.00,0.00,0.00,0.00,0.00,0.00,0.00,0.00,0.00,0.00,0.00,0.00,0.00,0.00,0.00,0.00,0.00,0.00,0.00,0.00,0.00,0.00,0.00,0.00,0.00,0.00,0.00,0.00,0.00,0.00,0.00,0.00,0.00,0.00,0.00,0.00,0.00,0.00,0.00,0.00,0.00,0.00,0.00,0.00,0.00,0.00,0.00,0.00,0.00,0.00,0.00,0.00,0.00,0.00,0.00,0.00,0.00,0.00,0.00,0.00,0.00,0.00,0.00,0.00,0.00,0.00,0.00,0.00,0.00,0.00,0.00,0.00
0.00,0.00,0.00,0.00,0.00,0.00,0.00,0.00,0.00,0.00,0.00,0.00,0.00,0.00,0.00,0.00,0.00,0.00,0.00,0.00,0.00,0.00,0.00,0.00,0.00,0.00,0.00,0.00,0.00,0.00,0.00,0.00,0.00,0.00,1613.47,1629.52,1635.04,1637.00,1640.53,1643.23,1644.13,1645.78,1646.48,1649.20,1647.53,1646.48,1645.58,1646.31,1646.85,1647.62,1648.49,1649.77,1648.08,1647.02,1646.78,1649.18,1650.05,1650.23,1648.69,1647.95,1647.27,1648.74,1649.93,1649.97,1648.60,1649.21,1648.93,1649.01,1648.29,1649.95,1650.38,1651.06,1649.88,1649.48,1649.27,1649.75,1650.36,1649.66,1650.14,1650.64,1651.31,1651.71,1651.95,1651.96,1652.41,1654.68,1655.08,1655.55,1654.21,1655.08,1655.25,1654.81,1654.11,1653.43,1653.86,1653.70,1652.78,1652.92,1653.82,1654.80,1654.45,1654.79,1654.65,1653.66,1651.92,1650.59,1648.99,1646.49,0.00,0.00,0.00,0.00,0.00,0.00,0.00,0.00,0.00,0.00,0.00,0.00,0.00,0.00,0.00,0.00,0.00,0.00,0.00,0.00,0.00,0.00,0.00,0.00,0.00,0.00,0.00,0.00,0.00,0.00,0.00,0.00,0.00,0.00,0.00,0.00,0.00,0.00,0.00,0.00,0.00,1655.14,1667.52,1673.64,1677.93,1679.74,1681.18,1682.30,1682.97,1683.49,1685.47,1687.72,1688.85,1689.02,1690.16,1691.97,1693.75,1694.39,1695.26,1695.73,1697.02,1697.34,1698.05,1698.33,1698.98,1698.91,1700.71,1702.28,1703.80,1703.09,1702.94,1703.84,1705.15,1708.12,1709.30,1711.80,1710.95,1712.13,1712.42,1713.66,1715.62,1719.46,1728.13,0.00,0.00,0.00,0.00,0.00,0.00,0.00,0.00,0.00,643.32,695.73,707.98,713.69,717.38,718.65,720.24,720.11,718.40,717.89,716.88,716.80,716.62,716.61,716.99,715.37,714.73,713.87,714.29,713.58,714.01,713.52,714.04,712.70,711.83,710.37,708.51,708.56,708.04,708.76,707.10,705.30,703.82,700.71,699.93,697.10,695.82,694.50,695.66,693.36,689.69,687.48,686.86,686.99,684.67,684.55,683.52,681.86,680.19,678.23,677.37,676.72,675.94,675.57,676.17,675.69,673.16,670.59,672.22,675.23,679.76,683.07,687.19,691.70,695.40,699.21,702.45,708.44,714.61,720.29,723.67,726.03,726.92,728.31,730.73,732.44,732.55,731.37,730.36,728.12,724.11,719.30,716.04,714.65,714.79,717.02,721.43,727.67,730.52,728.50,725.31,722.60,718.74,715.08,710.44,707.10,705.54,705.58,705.47,705.66,707.93,711.90,714.67,715.34,715.96,714.52,714.11,712.68,714.74,717.82,721.04,719.56,718.33,717.59,718.17,717.01,715.22,712.43,711.64,710.18,712.00,710.94,711.86,712.68,714.39,714.20,714.53,713.94,714.73,714.01,714.91,716.08,717.50,717.42,717.22,717.04,721.13,724.82,726.93,727.33,728.48,732.32,738.41,750.53,769.94,783.27,788.18,789.16,788.12,785.66,782.60,779.54,777.78,777.66,778.75,778.69,772.12,762.00,753.81,746.28,736.44,725.74,715.27,711.44,710.23,712.34,710.84,710.50,710.93,713.34,713.89,712.69,712.89,714.01,716.90,717.64,718.09,716.72,716.80,716.68,716.91,716.96,716.68,716.66,717.53,717.98,717.10,713.45,712.42,712.05,712.50,711.49,709.40,706.78,704.16,702.33,700.43,697.68,696.60,695.14,693.00,688.41,686.53,684.26,681.50,676.05,673.23,670.69,669.88,668.65,667.63,666.17,662.88,661.09,661.01,662.06,660.15,656.39,651.12,645.64,637.74,631.88,627.45,620.00,0.00,0.00,0.00,0.00,0.00,0.00,0.00,0.00,0.00,0.00,0.00,0.00,0.00,0.00,0.00,0.00,0.00,0.00,0.00,0.00,0.00,0.00,0.00,0.00,0.00,0.00,0.00,0.00,0.00,0.00,0.00,0.00,0.00,0.00,0.00,0.00,0.00,0.00,0.00,0.00,0.00,0.00,0.00,0.00,0.00,0.00,0.00,0.00,0.00,0.00,0.00,0.00,0.00,0.00,0.00,0.00,0.00,0.00,0.00,0.00,0.00,0.00,0.00,0.00,0.00,0.00,0.00,0.00,0.00,0.00,0.00
0.00,0.00,0.00,0.00,0.00,0.00,0.00,0.00,0.00,0.00,0.00,0.00,0.00,0.00,0.00,0.00,0.00,0.00,0.00,0.00,0.00,0.00,0.00,0.00,0.00,0.00,0.00,0.00,0.00,0.00,0.00,0.00,0.00,0.00,1606.70,1627.33,1633.48,1637.75,1640.31,1645.50,1645.24,1646.58,1646.11,1649.57,1648.62,1647.52,1646.12,1647.61,1648.28,1650.64,1650.88,1652.74,1648.57,1646.69,1645.14,1647.78,1648.86,1649.41,1648.00,1647.80,1647.88,1650.28,1650.87,1650.32,1648.12,1648.77,1648.85,1649.38,1649.31,1650.91,1650.85,1652.12,1651.17,1651.51,1650.93,1651.24,1651.04,1650.23,1649.73,1650.51,1650.02,1651.47,1652.04,1653.58,1653.43,1654.93,1654.00,1654.30,1653.57,1655.24,1655.91,1655.74,1655.60,1655.50,1656.32,1655.86,1654.93,1653.67,1654.89,1655.70,1655.80,1655.22,1654.95,1654.33,1654.27,1654.30,1653.96,1651.59,0.00,0.00,0.00,0.00,0.00,0.00,0.00,0.00,0.00,0.00,0.00,0.00,0.00,0.00,0.00,0.00,0.00,0.00,0.00,0.00,0.00,0.00,0.00,0.00,0.00,0.00,0.00,0.00,0.00,0.00,0.00,0.00,0.00,0.00,0.00,0.00,0.00,0.00,0.00,0.00,0.00,0.00,1650.00,1666.45,1674.37,1678.86,1680.64,1682.06,1684.17,1685.83,1687.91,1688.02,1689.13,1689.62,1691.49,1693.07,1694.52,1695.06,1695.56,1696.05,1697.86,1697.23,1697.92,1698.23,1700.02,1699.93,1700.70,1702.48,1703.99,1703.78,1703.19,1704.35,1706.14,1709.52,1710.91,1713.76,1712.78,1714.63,1715.84,1718.94,1723.50,1730.51,0.00,0.00,0.00,0.00,0.00,0.00,0.00,0.00,0.00,670.62,703.27,714.36,720.34,722.27,722.01,722.06,721.69,721.96,719.27,719.02,718.21,718.34,718.55,717.85,717.76,716.74,715.70,715.53,714.94,714.60,714.04,713.85,713.05,711.83,710.88,710.70,709.60,709.60,710.00,710.48,709.17,706.57,704.45,702.07,701.30,698.68,696.36,694.78,694.34,692.54,690.16,688.62,686.88,686.16,684.80,685.07,681.91,678.91,676.58,676.34,675.44,674.27,672.48,672.50,674.03,676.27,674.96,673.41,673.39,676.23,678.73,681.76,685.03,688.92,692.51,696.43,699.89,704.53,711.90,719.98,725.81,727.57,728.34,728.91,730.78,732.79,732.75,731.17,729.60,728.23,725.23,720.69,715.99,712.11,711.16,712.86,717.14,723.06,729.14,732.53,733.96,733.90,732.70,730.25,726.94,724.07,722.89,722.73,722.07,722.14,722.25,724.46,724.38,724.18,723.66,721.71,720.96,718.56,718.71,719.82,720.89,720.58,719.87,720.04,720.46,720.27,718.55,715.63,714.28,714.28,716.44,715.82,715.31,715.85,716.60,716.72,716.27,716.55,716.63,715.75,715.49,717.70,719.49,720.24,719.82,720.06,723.27,725.89,727.96,729.15,731.11,733.54,737.75,746.04,762.05,776.20,784.16,786.55,787.15,784.53,782.53,776.30,769.96,763.09,757.60,753.01,746.33,734.16,725.85,718.45,714.43,711.71,710.24,710.43,711.25,713.73,714.10,713.45,712.87,713.25,713.93,713.49,714.40,715.62,716.61,717.51,717.46,717.31,716.06,716.80,717.91,718.11,715.98,714.27,714.50,716.25,716.93,714.19,713.00,711.59,711.07,709.94,709.08,708.35,705.31,702.92,700.01,698.56,696.20,694.03,691.76,688.02,686.30,684.19,681.75,677.35,675.75,675.29,674.80,672.45,672.01,671.51,670.74,668.78,667.45,668.06,666.30,664.09,659.27,655.38,650.08,648.42,646.48,642.31,634.46,626.22,618.51,609.82,602.38,595.48,0.00,0.00,0.00,0.00,0.00,0.00,0.00,0.00,0.00,0.00,0.00,0.00,0.00,0.00,0.00,0.00,0.00,0.00,0.00,0.00,0.00,0.00,0.00,0.00,0.00,0.00,0.00,0.00,0.00,0.00,0.00,0.00,0.00,0.00,0.00,0.00,0.00,0.00,0.00,0.00,0.00,0.00,0.00,0.00,0.00,0.00,0.00,0.00,0.00,0.00,0.00,0.00,0.00,0.00,0.00,0.00,0.00,0.00,0.00,0.00,0.00,0.00,0.00,0.00,0.00
0.00,0.00,0.00,0.00,0.00,0.00,0.00,0.00,0.00,0.00,0.00,0.00,0.00,0.00,0.00,0.00,0.00,0.00,0.00,0.00,0.00,0.00,0.00,0.00,0.00,0.00,0.00,0.00,0.00,0.00,0.00,0.00,0.00,0.00,1602.52,1621.86,1629.58,1632.18,1634.65,1639.09,1640.70,1641.13,1642.53,1646.01,1647.73,1646.63,1645.34,1645.04,1645.73,1647.41,1648.43,1648.71,1645.14,1643.42,1642.29,1643.91,1645.47,1646.89,1646.87,1646.51,1646.46,1648.31,1648.91,1648.43,1646.84,1647.23,1647.95,1647.57,1647.35,1647.11,1648.77,1649.10,1650.53,1648.92,1648.80,1648.26,1649.96,1649.87,1649.57,1648.25,1647.86,1648.98,1650.69,1651.24,1650.90,1652.15,1651.62,1652.63,1651.53,1653.32,1652.28,1652.68,1652.44,1653.61,1654.86,1655.09,1653.83,1651.74,1651.97,1653.06,1654.00,1653.72,1654.02,1653.38,1653.81,1653.49,1653.32,1651.51,0.00,0.00,0.00,0.00,1292.83,0.00,0.00,0.00,0.00,0.00,0.00,0.00,0.00,0.00,0.00,0.00,0.00,0.00,0.00,0.00,0.00,0.00,0.00,0.00,0.00,0.00,0.00,0.00,0.00,0.00,0.00,0.00,0.00,0.00,0.00,0.00,0.00,0.00,0.00,0.00,0.00,0.00,0.00,0.00,1664.69,1671.74,1675.11,1677.74,1681.00,1684.24,1686.77,1686.47,1687.24,1687.71,1690.21,1691.53,1692.56,1692.99,1693.94,1694.55,1695.81,1695.71,1696.50,1695.90,1696.08,1695.90,1697.70,1700.51,1702.34,1702.18,1702.03,1703.17,1705.37,1708.27,1708.76,1711.05,1711.33,1714.14,1717.56,1720.59,1730.19,0.00,0.00,0.00,0.00,0.00,0.00,0.00,0.00,0.00,675.24,700.70,712.15,718.38,723.15,722.39,722.67,721.89,720.70,719.26,716.87,715.65,714.19,713.44,714.56,713.84,714.73,713.25,713.48,714.04,714.08,712.45,710.26,711.25,711.28,710.39,708.60,707.76,707.44,706.67,707.11,706.57,705.95,703.29,701.34,698.12,696.30,693.10,691.45,690.79,689.74,687.97,686.23,684.86,682.91,679.98,679.19,679.25,678.32,674.11,671.44,669.72,669.52,668.11,667.18,665.97,667.43,669.19,670.82,670.51,670.54,672.37,674.40,678.32,682.08,684.95,687.95,690.98,695.78,700.24,706.24,713.17,718.65,721.88,723.11,724.55,726.33,728.78,728.10,725.91,723.55,723.24,721.40,718.22,713.02,707.80,705.61,706.26,710.05,714.24,720.82,725.53,730.35,731.02,732.11,730.97,729.97,727.72,726.43,725.28,723.97,723.56,723.42,724.19,723.53,722.59,722.22,719.73,718.91,716.13,716.84,717.34,717.89,716.48,716.74,717.26,719.04,718.32,717.26,714.37,713.78,714.60,716.66,715.71,713.40,713.34,713.85,714.65,713.00,713.72,714.09,713.92,713.35,715.02,716.96,717.86,717.91,718.31,719.92,722.01,724.24,726.29,728.44,730.19,734.76,741.21,751.90,762.27,767.75,769.68,765.75,761.43,754.42,746.94,739.40,732.37,726.72,719.37,713.55,710.13,709.18,706.92,705.58,704.67,706.23,708.00,708.49,710.06,710.79,711.75,711.08,711.01,711.08,710.98,710.86,711.39,711.26,713.31,713.52,714.06,711.40,712.53,712.87,713.79,711.89,711.24,711.75,713.32,713.22,710.79,708.82,706.72,706.13,705.24,705.23,704.55,702.10,699.40,695.56,693.31,690.71,688.62,686.80,683.23,682.01,680.27,679.16,676.12,676.15,675.03,674.25,670.58,670.54,669.83,669.79,668.64,667.54,665.64,662.82,661.37,659.37,656.63,653.90,652.11,651.42,647.65,643.47,638.71,635.28,629.44,624.39,618.99,613.91,608.26,602.70,595.50,0.00,0.00,0.00,0.00,0.00,0.00,0.00,0.00,0.00,0.00,0.00,0.00,0.00,0.00,0.00,0.00,0.00,0.00,0.00,0.00,0.00,0.00,0.00,0.00,0.00,0.00,0.00,0.00,0.00,0.00,0.00,0.00,0.00,0.00,0.00,0.00,0.00,0.00,0.00,0.00,0.00,0.00,0.00,0.00,0.00,0.00,0.00,0.00,0.00,0.00,0.00,0.00,0.00,0.00,0.00,0.00,0.00,0.00,0.00,0.00,0.00
0.00,0.00,0.00,0.00,0.00,0.00,0.00,0.00,0.00,0.00,0.00,0.00,0.00,0.00,0.00,0.00,0.00,0.00,0.00,0.00,0.00,0.00,0.00,0.00,0.00,0.00,0.00,0.00,0.00,0.00,0.00,0.00,0.00,0.00,1591.03,1619.11,1630.52,1634.31,1634.40,1637.82,1638.40,1641.36,1643.92,1647.75,1649.50,1647.71,1645.92,1645.62,1646.08,1648.42,1648.65,1648.19,1644.75,1644.11,1643.28,1643.99,1644.45,1645.64,1645.58,1646.58,1647.49,1650.19,1649.73,1648.80,1646.82,1646.82,1648.52,1648.69,1649.03,1647.68,1648.49,1649.15,1650.78,1649.99,1649.21,1649.05,1650.68,1650.95,1649.98,1649.61,1649.55,1651.34,1652.13,1653.62,1652.96,1653.21,1651.86,1653.49,1653.43,1655.31,1653.20,1653.76,1652.41,1654.30,1654.99,1655.77,1655.17,1653.00,1653.47,1654.61,1656.34,1655.55,1655.13,1655.40,1655.58,1654.55,1653.73,1653.74,0.00,0.00,0.00,0.00,1299.95,0.00,0.00,0.00,0.00,0.00,0.00,0.00,0.00,0.00,0.00,0.00,0.00,0.00,0.00,0.00,0.00,0.00,0.00,0.00,0.00,0.00,0.00,0.00,0.00,0.00,0.00,0.00,0.00,0.00,0.00,0.00,0.00,0.00,0.00,0.00,0.00,0.00,0.00,0.00,0.00,1660.67,1670.09,1676.33,1680.96,1683.51,1685.82,1686.78,1688.72,1689.61,1691.07,1692.06,1693.21,1693.99,1694.93,1696.28,1697.25,1697.31,1696.88,1696.11,1696.70,1697.61,1700.58,1702.23,1703.68,1703.61,1704.14,1705.00,1707.06,1709.00,1710.23,1712.98,1717.85,1721.94,1726.42,1732.68,0.00,0.00,0.00,0.00,0.00,0.00,0.00,0.00,0.00,685.03,706.37,715.56,721.47,722.95,724.67,723.28,723.66,723.81,722.32,720.20,716.50,716.72,715.91,715.68,714.96,714.59,715.32,716.12,716.26,716.38,714.58,712.47,710.98,712.42,713.19,712.50,710.77,709.56,709.75,708.43,708.44,707.42,706.29,703.39,701.37,699.85,698.69,695.65,693.70,691.83,690.25,688.65,686.38,686.02,684.89,683.09,680.50,679.14,677.08,674.20,671.21,669.88,668.84,666.86,665.53,664.95,665.60,666.72,668.74,668.88,669.14,670.29,673.80,678.19,681.59,683.54,686.33,689.33,694.21,698.35,703.25,709.48,714.91,720.73,723.41,725.02,726.28,727.16,726.30,724.68,723.16,723.58,721.19,718.58,713.01,708.21,705.09,704.54,707.13,709.19,714.01,717.92,726.06,729.79,732.95,732.39,732.15,730.85,728.71,726.19,724.56,725.48,725.87,725.72,724.36,722.92,722.24,720.64,719.71,718.30,717.68,717.62,716.76,716.77,717.47,717.53,717.62,717.69,718.06,716.80,714.31,714.76,715.40,716.23,712.84,712.21,710.99,711.73,711.31,713.46,714.21,713.36,710.93,713.10,716.48,719.11,719.21,718.69,720.94,721.86,724.75,726.14,727.17,727.20,728.10,728.21,729.86,732.80,735.27,735.06,734.05,731.08,726.40,721.28,715.65,712.49,709.18,707.33,706.08,706.84,708.00,707.38,706.64,706.18,709.01,711.17,711.62,711.17,710.75,711.85,711.20,711.97,711.54,713.07,712.89,713.35,712.01,713.63,713.72,714.52,712.21,713.84,712.10,711.93,709.35,710.28,710.82,711.71,711.95,710.16,709.30,706.72,706.31,704.78,705.40,704.63,702.17,698.33,693.79,692.00,690.25,687.95,685.98,684.17,682.80,680.68,679.75,677.47,677.63,676.65,675.77,673.22,672.62,672.58,671.73,670.13,668.18,665.90,662.77,661.89,660.07,658.92,656.37,655.48,654.25,651.24,648.11,644.49,642.75,639.43,636.00,632.58,628.15,624.41,618.94,614.64,607.22,594.93,579.62,0.00,0.00,0.00,0.00,0.00,0.00,0.00,0.00,0.00,0.00,0.00,0.00,0.00,0.00,0.00,0.00,0.00,0.00,0.00,0.00,0.00,0.00,0.00,0.00,0.00,0.00,0.00,0.00,0.00,0.00,0.00,0.00,0.00,0.00,0.00,0.00,0.00,0.00,0.00,0.00,0.00,0.00,0.00,0.00,0.00,0.00,0.00,0.00,0.00,0.00,0.00,0.00,0.00,0.00,0.00,0.00,0.00,0.00
0.00,0.00,0.00,0.00,0.00,0.00,0.00,0.00,0.00,0.00,0.00,0.00,0.00,0.00,0.00,0.00,0.00,0.00,0.00,0.00,0.00,0.00,0.00,0.00,0.00,0.00,0.00,0.00,0.00,0.00,0.00,0.00,0.00,0.00,0.00,1610.24,1625.57,1629.83,1632.43,1634.11,1635.92,1637.94,1641.99,1645.24,1646.14,1644.52,1643.45,1643.60,1644.42,1645.60,1646.25,1643.81,1642.80,1642.28,1643.48,1642.54,1644.05,1644.58,1645.42,1644.92,1645.27,1645.97,1646.61,1646.53,1645.66,1643.60,1644.62,1644.43,1645.83,1644.55,1646.65,1648.24,1649.48,1648.55,1647.24,1647.62,1647.91,1648.74,1647.84,1648.31,1648.51,1650.23,1650.80,1651.09,1650.36,1650.16,1650.17,1651.85,1651.90,1652.77,1650.43,1650.51,1648.91,1650.57,1651.04,1651.81,1650.86,1649.42,1650.68,1652.36,1654.79,1654.28,1653.48,1653.47,1653.20,1653.11,1652.74,1653.84,0.00,0.00,0.00,0.00,1306.75,0.00,0.00,0.00,0.00,0.00,0.00,0.00,0.00,0.00,0.00,0.00,0.00,0.00,0.00,0.00,0.00,0.00,0.00,0.00,0.00,0.00,0.00,0.00,0.00,0.00,0.00,0.00,0.00,0.00,0.00,0.00,0.00,0.00,0.00,0.00,0.00,0.00,0.00,0.00,0.00,0.00,1657.17,1668.38,1674.91,1678.53,1681.22,1683.18,1684.98,1685.45,1687.22,1688.03,1689.90,1690.02,1691.16,1692.54,1694.00,1695.76,1695.63,1694.84,1694.00,1695.02,1697.89,1699.49,1700.67,1700.76,1701.69,1701.93,1703.99,1705.22,1706.77,1711.15,1717.40,1722.86,0.00,0.00,0.00,0.00,0.00,0.00,0.00,0.00,0.00,0.00,683.14,703.50,713.64,717.76,722.04,722.45,723.53,720.23,720.02,719.60,719.28,716.61,713.18,713.63,713.25,713.30,711.27,710.67,711.23,712.41,713.55,712.83,711.48,709.60,708.82,709.30,710.64,710.73,709.72,707.39,706.65,705.62,705.70,704.58,702.64,698.62,696.57,694.51,694.03,692.95,690.89,688.19,686.22,685.72,683.51,681.38,679.21,676.97,675.19,673.92,673.66,671.98,669.71,666.82,664.93,663.26,662.40,661.66,660.86,659.98,661.03,660.82,662.76,664.08,668.12,672.29,675.42,678.86,681.07,683.17,687.74,692.51,698.19,701.72,705.73,712.04,716.85,720.28,721.47,722.12,721.28,720.55,719.65,719.42,717.60,715.09,709.83,705.23,700.95,699.35,700.54,701.63,703.61,705.35,712.70,718.95,724.15,726.40,728.51,728.16,725.75,722.22,721.57,722.23,723.28,721.91,720.33,718.52,717.35,716.30,715.12,715.22,716.08,716.80,716.58,715.25,714.76,712.71,712.88,712.84,713.73,712.75,710.45,709.79,708.99,708.66,706.96,706.78,705.50,705.70,705.66,707.52,707.20,705.68,703.61,704.24,706.52,708.31,708.76,708.61,711.61,711.78,712.61,712.71,711.51,712.11,711.67,711.21,709.26,709.71,709.94,709.65,708.80,708.96,708.33,706.42,704.16,702.44,701.76,702.76,702.29,702.94,703.93,704.29,703.05,702.02,703.99,706.25,706.76,706.57,705.40,706.43,706.22,708.27,707.18,708.18,707.67,708.17,706.94,707.82,708.35,709.63,708.54,709.88,708.08,707.84,705.50,706.86,706.96,706.18,705.30,703.54,702.72,702.21,702.95,702.16,701.17,698.84,696.19,691.82,688.31,685.80,683.87,681.47,679.96,679.75,679.18,678.73,678.04,675.83,675.55,674.15,673.76,670.95,669.85,668.97,668.04,666.34,665.61,663.06,660.80,658.52,656.65,655.37,653.61,653.71,652.39,649.54,646.78,644.28,644.30,641.48,638.56,635.24,630.99,627.27,621.89,619.46,614.00,606.55,596.28,585.49,575.78,565.33,556.24,0.00,0.00,0.00,0.00,0.00,0.00,0.00,0.00,0.00,0.00,0.00,0.00,0.00,0.00,0.00,0.00,0.00,0.00,0.00,0.00,0.00,0.00,0.00,0.00,0.00,0.00,0.00,0.00,0.00,0.00,0.00,0.00,0.00,0.00,0.00,0.00,0.00,0.00,0.00,0.00,0.00,0.00,0.00,0.00,0.00,0.00,0.00,0.00,0.00,0.00,0.00,0.00,0.00,0.00
0.00,0.00,0.00,0.00,0.00,0.00,0.00,0.00,0.00,0.00,0.00,0.00,0.00,0.00,0.00,0.00,0.00,0.00,0.00,0.00,0.00,0.00,0.00,0.00,0.00,0.00,0.00,0.00,0.00,0.00,0.00,0.00,0.00,0.00,0.00,1604.30,1623.43,1630.70,1634.55,1637.41,1638.79,1640.63,1642.99,1645.72,1645.82,1645.46,1644.52,1645.54,1646.17,1647.88,1646.70,1645.18,1644.74,1644.61,1643.39,1642.12,1643.22,1644.94,1645.84,1645.78,1646.30,1646.45,1647.42,1647.01,1646.18,1643.62,1643.49,1644.47,1646.80,1646.26,1646.66,1647.90,1648.49,1649.10,1648.34,1649.53,1647.58,1647.35,1646.04,1648.65,1649.41,1651.89,1651.76,1652.00,1650.52,1649.99,1650.26,1652.11,1652.05,1653.19,1651.64,1652.33,1650.55,1652.59,1653.07,1653.59,1652.03,1651.21,1652.16,1654.22,1656.14,1656.66,1654.82,1654.42,1652.97,1653.43,1653.27,1655.08,0.00,0.00,0.00,0.00,1316.55,0.00,0.00,0.00,0.00,0.00,0.00,0.00,0.00,0.00,0.00,0.00,0.00,0.00,0.00,0.00,0.00,0.00,0.00,0.00,0.00,0.00,0.00,0.00,0.00,0.00,0.00,0.00,0.00,0.00,0.00,0.00,0.00,0.00,0.00,0.00,0.00,0.00,0.00,0.00,0.00,0.00,0.00,1659.87,1671.21,1677.22,1680.75,1683.85,1684.72,1685.65,1686.38,1687.79,1689.15,1690.46,1691.50,1692.87,1694.50,1696.20,1696.92,1696.77,1697.51,1698.14,1698.99,1698.99,1700.14,1701.25,1702.41,1702.82,1706.16,1707.46,1711.22,1715.38,1723.04,0.00,0.00,0.00,0.00,0.00,0.00,0.00,0.00,0.00,0.00,687.13,704.04,712.37,718.47,721.72,723.13,723.90,723.39,721.87,720.66,720.84,719.89,717.24,713.70,715.42,715.39,716.53,712.71,711.39,711.23,713.53,715.42,714.26,712.56,710.84,711.18,710.92,711.69,711.06,710.72,709.23,708.37,707.11,706.12,705.06,703.30,700.51,696.97,695.60,695.13,696.05,693.97,689.98,687.64,686.94,685.42,682.65,679.57,678.31,677.29,675.92,673.59,672.49,670.72,669.93,666.62,665.50,662.68,662.85,661.03,659.80,658.73,658.68,661.24,663.02,665.05,668.03,670.32,675.07,678.11,681.74,686.18,690.70,695.89,699.26,702.82,708.35,714.88,720.19,721.67,721.45,720.92,721.87,721.18,720.12,717.48,715.56,710.55,706.20,701.86,700.63,700.54,700.48,700.45,700.62,703.79,709.47,716.09,722.40,727.09,728.03,725.88,723.15,722.33,723.40,723.23,722.27,720.15,717.78,716.46,716.02,715.26,716.79,0.00,717.57,715.46,715.00,714.15,713.37,712.41,713.07,713.03,712.97,711.16,710.37,708.82,708.16,706.58,706.53,704.36,704.29,704.02,705.46,705.58,704.66,702.88,702.93,702.97,703.77,704.11,705.15,706.95,706.93,706.55,707.03,704.59,706.42,704.89,705.39,702.87,703.65,703.47,703.59,703.09,704.35,705.27,705.95,703.86,702.10,701.07,704.50,705.49,705.53,705.41,705.49,705.39,703.58,705.33,706.48,708.00,708.11,707.56,706.60,705.58,707.71,709.16,709.76,708.42,707.75,706.80,707.02,707.33,708.83,708.91,709.60,708.12,708.00,706.52,707.06,705.20,703.40,702.61,701.70,702.04,701.75,701.95,699.57,696.30,693.51,692.60,690.08,688.14,685.22,684.19,682.13,681.20,680.50,679.45,679.37,678.25,677.55,675.91,674.79,673.32,671.80,670.39,669.32,667.12,664.71,663.37,662.93,662.24,660.27,657.84,656.94,655.02,655.40,654.09,652.11,648.78,645.77,645.28,642.64,640.18,637.27,633.50,629.68,623.69,621.12,616.46,611.30,603.93,597.29,592.38,584.79,577.11,570.97,569.92,566.85,0.00,0.00,0.00,0.00,0.00,0.00,0.00,0.00,0.00,0.00,0.00,0.00,0.00,0.00,0.00,0.00,0.00,0.00,0.00,0.00,0.00,0.00,0.00,0.00,0.00,0.00,0.00,0.00,0.00,0.00,0.00,0.00,0.00,0.00,0.00,0.00,0.00,0.00,0.00,0.00,0.00,0.00,0.00,0.00,0.00,0.00,0.00,0.00,0.00,0.00,0.00
