0.00,0.00,0.00,0.00,0.00,0.00,0.00,0.00,0.00,0.00,0.00,0.00,1548.25,0.00,0.00,0.00,0.00,0.00,0.00,0.00,0.00,0.00,0.00,0.00,0.00,0.00,0.00,0.00,0.00,0.00,0.00,0.00,0.00,0.00,0.00,0.00,0.00,0.00,0.00,0.00,0.00,0.00,0.00,0.00,0.00,0.00,0.00,0.00,0.00,0.00,0.00,0.00,0.00,0.00,0.00,0.00,0.00,0.00,0.00,0.00,0.00,0.00,0.00,0.00,0.00,0.00,0.00,1623.78,1631.00,1634.53,1640.47,1643.73,1646.45,1646.10,1646.50,1646.34,1646.78,1646.15,1647.43,1647.81,1647.97,1646.04,1646.56,1648.63,1650.42,1650.54,1650.02,1651.19,1653.50,1654.48,1654.96,1653.94,1655.11,1655.17,1656.14,1654.77,1654.73,1653.35,1655.23,1656.79,1659.44,1659.24,1659.45,1658.42,1658.57,1659.92,1661.77,1662.54,1661.45,1661.78,1661.79,1663.57,1662.58,1661.49,1660.79,1662.65,1664.68,1665.18,1666.71,1667.23,1667.91,1665.58,1665.75,1665.34,1667.25,1667.28,1667.39,1667.35,1667.97,1668.60,1669.58,1669.06,1670.43,1671.02,1673.16,1673.75,1672.99,1673.12,1671.73,1672.99,1673.16,1673.01,1673.21,1673.07,1674.70,1675.35,1677.30,1678.80,1678.18,1677.78,1676.60,1678.83,1678.62,1679.94,1680.09,1680.44,1680.44,1680.59,1681.88,1681.89,1681.82,1681.10,1682.61,1681.83,1682.55,1681.77,1682.44,1682.85,1684.10,1685.61,1686.51,1687.85,1688.00,1688.47,1687.55,1688.10,1687.79,1688.12,1689.72,1690.76,1691.74,1690.64,1690.27,1690.93,1691.38,1690.97,1690.32,1691.35,1693.63,1693.65,1694.20,1693.61,1693.79,1693.91,1694.89,1694.23,1695.82,1695.27,1697.79,1697.28,1698.57,1698.63,1696.88,1697.07,1697.06,1700.01,1700.85,1701.68,1701.39,1702.05,1702.70,1703.11,1702.94,1702.72,1701.48,1701.30,1701.22,1703.03,1704.70,1706.04,1705.29,1703.82,1705.04,1706.53,1706.71,1706.22,1705.96,1708.06,1708.42,1709.88,1710.29,1710.66,1710.44,1709.38,1709.94,1709.61,1710.92,1711.15,1712.98,1713.09,1711.95,1711.29,1713.44,1717.12,1720.88,1721.67,1724.54,0.00,0.00,0.00,0.00,0.00,0.00,0.00,0.00,0.00,659.41,688.47,699.31,704.20,702.82,701.45,698.92,696.94,693.79,691.12,690.98,681.08,670.32,659.70,654.35,650.00,648.36,648.86,649.17,651.03,650.03,650.83,650.82,652.26,651.15,650.36,651.12,651.89,652.04,652.52,655.81,658.20,658.67,656.25,655.80,654.95,655.07,656.91,658.01,657.72,656.26,657.48,658.33,657.89,657.60,658.17,658.35,657.70,658.69,658.97,660.22,660.40,662.09,662.68,665.16,666.21,665.85,664.63,665.71,667.86,668.53,669.03,669.02,670.14,670.98,673.05,675.81,678.05,679.41,681.06,681.40,683.41,685.71,692.83,700.74,705.35,707.16,707.70,707.14,707.37,708.25,709.99,711.09,712.57,713.14,714.28,716.52,717.61,716.63,707.70,686.83,656.05,643.63,0.00,0.00,0.00,0.00,0.00,0.00,0.00,0.00,0.00,0.00,0.00,0.00,0.00,0.00,0.00,0.00,0.00,0.00,0.00,0.00,0.00,0.00,0.00,0.00,0.00,0.00,0.00,0.00,0.00,0.00,0.00,0.00,0.00,0.00,0.00,0.00,0.00,0.00,0.00,0.00,0.00,0.00,0.00,0.00,0.00,0.00,0.00,0.00,0.00,0.00,0.00,0.00,0.00,0.00,0.00,0.00,0.00,0.00,0.00,0.00,0.00,0.00,0.00,0.00,0.00,0.00,0.00,0.00,0.00,0.00,0.00,0.00,0.00,0.00,0.00,0.00,0.00,0.00,0.00,0.00,0.00,0.00,0.00,0.00,0.00,0.00,0.00,0.00,0.00,0.00,0.00,0.00,0.00,0.00,0.00,0.00,0.00,0.00,0.00,0.00,0.00,0.00,0.00,0.00,0.00,0.00,0.00,0.00,0.00,0.00,0.00,0.00,0.00,0.00,0.00,0.00,0.00,0.00,0.00,0.00,0.00,0.00,0.00,0.00,0.00,0.00,0.00,0.00,0.00,0.00,0.00,0.00,0.00,0.00,0.00,0.00,0.00,0.00,0.00,0.00,0.00,0.00,0.00,0.00,0.00,0.00
0.00,0.00,0.00,0.00,0.00,0.00,0.00,0.00,0.00,0.00,0.00,1549.35,1572.71,1583.73,1582.59,1574.52,0.00,0.00,0.00,0.00,0.00,0.00,0.00,0.00,0.00,0.00,0.00,0.00,0.00,0.00,0.00,0.00,0.00,0.00,0.00,0.00,0.00,0.00,0.00,0.00,0.00,0.00,0.00,0.00,0.00,0.00,0.00,0.00,0.00,0.00,0.00,0.00,0.00,0.00,0.00,0.00,0.00,0.00,0.00,0.00,0.00,0.00,0.00,0.00,0.00,0.00,0.00,0.00,0.00,1624.01,1633.57,1641.38,1645.75,1646.87,1645.93,1645.71,1645.39,1646.37,1647.47,1649.73,1648.99,1648.02,1647.26,1650.00,1650.63,1651.78,1651.65,1652.96,1653.52,1654.43,1655.86,1655.85,1656.68,1656.69,1657.72,1656.67,1656.13,1655.07,1655.49,1656.56,1657.86,1658.12,1659.14,1658.74,1660.20,1661.60,1663.09,1663.26,1663.01,1664.19,1664.13,1665.26,1663.84,1662.85,1661.23,1663.51,1664.62,1666.53,1667.67,1668.62,1668.47,1666.95,1667.10,1667.92,1669.54,1669.75,1668.53,1668.86,1670.10,1671.08,1671.43,1670.86,1672.15,1672.76,1674.14,1675.15,1674.32,1674.42,1673.25,1674.25,1674.77,1674.61,1675.58,1675.77,1676.63,1677.39,1678.12,1678.84,1677.76,1678.19,1678.79,1679.92,1679.88,1680.33,1681.59,1681.61,1681.95,1683.15,1685.71,1685.44,1684.14,1683.33,1684.10,1684.49,1684.14,1684.41,1684.00,1684.85,1685.87,1687.62,1687.42,1688.23,1688.19,1689.58,1689.31,1689.88,1690.01,1691.07,1692.79,1693.19,1692.57,1691.63,1692.17,1693.43,1693.15,1692.03,1691.62,1693.15,1695.74,1695.75,1696.29,1695.71,1696.39,1696.40,1696.63,1696.16,1698.25,1699.03,1701.20,1699.41,1699.17,1697.93,1696.96,1698.29,1699.40,1701.44,1701.69,1702.28,1703.10,1703.17,1703.97,1703.89,1704.46,1705.12,1704.05,1703.74,1701.80,1703.99,1706.39,1708.18,1707.46,1706.09,1707.39,1709.39,1709.48,1709.09,1707.91,1709.09,1709.86,1711.27,1711.05,1710.47,1709.10,1710.48,1712.39,1713.40,1712.57,1711.22,1712.37,1711.62,1711.59,1710.50,1712.19,1715.41,1718.30,1719.72,1720.85,1723.79,0.00,0.00,0.00,0.00,0.00,0.00,0.00,0.00,0.00,688.58,699.06,703.12,701.11,699.71,697.05,694.53,691.85,689.69,690.34,683.41,676.00,668.28,662.00,657.17,653.45,653.57,652.31,654.00,653.02,654.60,655.10,656.85,655.60,653.64,653.67,654.38,653.50,652.60,653.74,655.85,656.35,654.24,653.28,653.22,652.73,654.13,655.05,655.49,655.42,655.72,655.72,655.30,654.69,655.87,655.24,655.90,657.04,658.09,658.27,657.94,657.84,659.84,661.91,664.50,664.17,663.79,664.25,665.62,666.12,665.95,665.61,666.88,668.35,671.72,674.98,677.43,677.97,678.71,679.53,681.57,684.43,690.52,697.92,702.41,704.10,705.38,705.79,706.28,706.76,707.56,708.78,710.26,711.85,713.36,714.17,713.41,710.28,698.07,664.59,630.20,583.70,552.13,0.00,0.00,0.00,0.00,0.00,0.00,0.00,0.00,0.00,0.00,0.00,0.00,0.00,0.00,0.00,0.00,0.00,0.00,0.00,0.00,0.00,0.00,0.00,0.00,0.00,0.00,0.00,0.00,0.00,0.00,0.00,0.00,0.00,0.00,0.00,0.00,0.00,0.00,0.00,0.00,0.00,0.00,0.00,0.00,0.00,0.00,0.00,0.00,0.00,0.00,0.00,0.00,0.00,0.00,0.00,0.00,0.00,0.00,0.00,0.00,0.00,0.00,0.00,0.00,0.00,0.00,0.00,0.00,0.00,0.00,0.00,0.00,0.00,0.00,0.00,0.00,0.00,0.00,0.00,0.00,0.00,0.00,0.00,0.00,0.00,0.00,0.00,0.00,0.00,0.00,0.00,0.00,0.00,0.00,0.00,0.00,0.00,0.00,0.00,0.00,0.00,0.00,0.00,0.00,0.00,0.00,0.00,0.00,0.00,0.00,0.00,0.00,0.00,0.00,0.00,0.00,0.00,0.00,0.00,0.00,0.00,0.00,0.00,0.00,0.00,0.00,0.00,0.00,0.00,0.00,0.00,0.00,0.00,0.00,0.00,0.00,0.00,0.00,0.00,0.00,0.00,0.00,0.00,0.00,0.00
0.00,0.00,0.00,0.00,0.00,0.00,0.00,0.00,0.00,0.00,0.00,1545.11,1587.93,1599.48,1602.11,1598.40,1591.19,1576.01,1566.67,0.00,0.00,0.00,0.00,0.00,0.00,0.00,0.00,0.00,0.00,0.00,0.00,0.00,0.00,0.00,0.00,0.00,0.00,0.00,0.00,0.00,0.00,0.00,0.00,0.00,0.00,0.00,0.00,0.00,0.00,0.00,0.00,0.00,0.00,0.00,0.00,0.00,0.00,0.00,0.00,0.00,0.00,0.00,0.00,0.00,0.00,0.00,0.00,0.00,0.00,0.00,1617.36,1633.24,1642.67,1647.25,1647.90,1648.66,1648.92,1649.88,1649.78,1651.40,1651.23,1652.57,1653.26,1654.28,1654.18,1655.34,1655.61,1655.31,1655.29,1657.08,1659.56,1659.75,1660.92,1660.35,1661.38,1660.18,1661.31,1660.21,1660.92,1660.00,1662.02,1661.18,1663.12,1661.76,1664.34,1664.82,1666.58,1664.82,1664.76,1665.81,1667.76,1668.52,1667.66,1666.93,1667.30,1668.87,1669.98,1670.33,1671.43,1671.82,1671.99,1670.77,1671.90,1672.44,1673.88,1672.15,1671.98,1672.30,1673.82,1674.38,1674.55,1674.83,1675.03,1675.32,1676.70,1677.60,1677.36,1677.24,1678.01,1678.53,1679.05,1678.65,1680.47,1679.87,1681.01,1680.85,1681.52,1680.54,1681.17,1681.99,1683.48,1683.70,1684.21,1684.53,1685.29,1685.28,1686.44,1687.64,1688.83,1687.81,1686.71,1687.51,1688.40,1688.59,1687.53,1688.40,1688.02,1689.65,1690.20,1691.79,1691.29,1691.16,1691.50,1693.60,1694.10,1695.07,1695.17,1696.01,1697.60,1696.82,1695.77,1695.20,1695.66,1697.75,1697.01,1696.76,1695.49,1697.03,1698.06,1699.11,1699.09,1698.69,1698.37,1699.00,1700.71,1701.73,1703.10,1703.70,1705.27,1704.87,1704.94,1703.70,1703.21,1703.41,1704.26,1704.98,1705.53,1706.22,1707.29,1706.68,1707.09,1707.68,1708.95,1710.01,1708.91,1709.68,1708.05,1709.70,1711.29,1712.31,1711.97,1710.72,1711.63,1713.46,1713.28,1714.11,1713.34,1714.54,1714.14,1715.00,1715.10,1715.85,1714.48,1716.24,1717.33,1718.12,1717.29,1716.11,1716.91,1715.68,1716.08,1716.23,1718.24,1720.58,1722.97,1725.66,1725.18,1726.15,0.00,0.00,0.00,0.00,0.00,0.00,0.00,0.00,0.00,690.48,704.35,705.98,704.52,701.57,699.64,696.48,694.39,691.03,692.59,688.75,685.49,680.14,675.95,670.83,665.63,663.58,661.81,661.38,660.75,661.36,661.33,661.22,660.05,659.84,660.09,659.50,658.55,656.82,657.62,658.35,660.01,657.72,655.92,654.49,654.26,655.93,656.45,656.14,655.84,657.29,657.76,657.73,657.18,658.27,658.48,659.18,660.07,660.35,659.76,659.23,659.23,661.85,663.78,665.39,665.31,666.29,667.92,668.73,668.47,667.35,668.25,669.81,672.04,674.33,677.77,679.92,679.87,680.71,683.20,686.55,690.03,694.70,700.54,702.91,705.10,706.50,708.31,708.20,709.17,709.33,710.99,712.73,714.96,716.36,715.69,714.14,708.54,687.83,645.56,580.29,0.00,0.00,0.00,0.00,0.00,0.00,0.00,0.00,0.00,0.00,0.00,0.00,0.00,0.00,0.00,0.00,0.00,0.00,0.00,0.00,0.00,0.00,0.00,0.00,0.00,0.00,0.00,0.00,0.00,0.00,0.00,0.00,0.00,0.00,0.00,0.00,0.00,0.00,0.00,0.00,0.00,0.00,0.00,0.00,0.00,0.00,0.00,0.00,0.00,0.00,0.00,0.00,0.00,0.00,0.00,0.00,0.00,0.00,0.00,0.00,0.00,0.00,0.00,0.00,0.00,0.00,0.00,0.00,0.00,0.00,0.00,0.00,0.00,0.00,0.00,0.00,0.00,0.00,0.00,0.00,0.00,0.00,0.00,0.00,0.00,0.00,0.00,0.00,0.00,0.00,0.00,0.00,0.00,0.00,0.00,0.00,0.00,0.00,0.00,0.00,0.00,0.00,0.00,0.00,0.00,0.00,0.00,0.00,0.00,0.00,0.00,0.00,0.00,0.00,0.00,0.00,0.00,0.00,0.00,0.00,0.00,0.00,0.00,0.00,0.00,0.00,0.00,0.00,0.00,0.00,0.00,0.00,0.00,0.00,0.00,0.00,0.00,0.00,0.00,0.00,0.00,0.00,0.00,0.00,0.00,0.00,0.00
0.00,0.00,0.00,0.00,0.00,0.00,0.00,0.00,0.00,0.00,0.00,1550.90,1588.89,1604.15,1608.24,1610.48,1609.75,1608.93,1601.92,1598.33,1589.03,1580.74,0.00,0.00,0.00,0.00,0.00,0.00,0.00,0.00,0.00,0.00,0.00,0.00,0.00,0.00,0.00,0.00,0.00,0.00,0.00,0.00,0.00,0.00,0.00,0.00,0.00,0.00,0.00,0.00,0.00,0.00,0.00,0.00,0.00,0.00,0.00,0.00,0.00,0.00,0.00,0.00,0.00,0.00,0.00,0.00,0.00,0.00,0.00,0.00,0.00,0.00,1625.91,1638.78,1643.21,1648.80,1649.86,1651.43,1649.34,1651.19,1651.01,1652.80,1652.86,1654.75,1654.87,1657.32,1656.15,1654.94,1653.24,1655.83,1657.98,1659.49,1659.80,1660.23,1660.92,1660.61,1661.61,1660.82,1661.46,1660.69,1662.41,1662.70,1663.98,1662.23,1663.65,1664.72,1667.74,1668.29,1668.72,1667.57,1667.09,1667.23,1667.59,1668.71,1669.34,1670.47,1671.34,1672.77,1673.77,1673.60,1673.08,1673.22,1674.65,1675.14,1675.25,1673.10,1673.02,1673.78,1675.74,1676.74,1675.87,1675.72,1675.44,1676.82,1677.97,1678.70,1679.34,1679.29,1681.01,1680.05,1679.83,1678.36,1680.26,1679.70,1680.17,1680.57,1681.70,1682.29,1682.81,1683.52,1685.35,1685.45,1686.49,1685.22,1686.22,1686.70,1688.01,1688.37,1688.50,1688.08,1687.42,1689.01,1689.89,1691.15,1688.41,1689.54,1689.09,1692.02,1691.91,1692.13,1691.64,1691.37,1691.47,1692.31,1692.70,1693.88,1695.44,1697.38,1698.90,1696.64,1695.26,1694.85,1696.75,1697.38,1697.05,1697.67,1698.43,1698.95,1698.56,1699.64,1700.28,1700.04,1698.91,1699.17,1700.59,1702.33,1703.61,1704.89,1705.87,1705.84,1705.73,1704.71,1704.90,1704.36,1704.29,1704.84,1705.72,1707.18,1707.81,1707.31,1707.04,1707.76,1709.59,1710.97,1710.53,1711.16,1710.31,1711.23,1711.84,1712.70,1712.81,1713.36,1713.97,1715.95,1715.11,1715.79,1715.60,1716.65,1716.19,1715.48,1715.81,1716.11,1715.85,1716.24,1717.25,1716.99,1718.41,1718.46,1719.83,1718.13,1717.97,1718.83,1720.16,1721.90,1723.59,1726.79,1726.10,1725.51,0.00,0.00,0.00,0.00,0.00,0.00,0.00,0.00,0.00,684.00,702.80,705.25,703.99,701.24,697.99,693.85,690.78,688.64,689.73,687.88,683.06,679.76,676.19,674.31,669.88,667.01,663.81,662.46,660.83,660.00,658.79,658.57,657.48,658.03,658.67,659.09,658.34,657.01,656.83,657.34,657.45,655.17,652.91,651.92,652.55,653.58,654.43,653.93,653.46,653.92,653.31,653.52,653.58,655.59,656.04,657.46,658.14,659.85,658.50,658.80,657.27,660.08,660.33,662.26,662.29,664.86,666.71,667.91,666.84,666.18,665.89,668.36,670.98,674.47,677.12,678.18,677.95,678.29,681.01,684.56,688.94,695.08,700.32,702.74,704.45,705.64,705.84,705.84,705.85,708.01,709.38,711.89,712.31,713.41,712.97,709.42,699.49,655.05,581.90,0.00,0.00,0.00,0.00,0.00,0.00,0.00,0.00,0.00,0.00,0.00,0.00,0.00,0.00,0.00,0.00,0.00,0.00,0.00,0.00,0.00,0.00,0.00,0.00,0.00,0.00,0.00,0.00,0.00,0.00,0.00,0.00,0.00,0.00,0.00,0.00,0.00,0.00,0.00,0.00,0.00,0.00,0.00,0.00,0.00,0.00,0.00,0.00,0.00,0.00,0.00,0.00,0.00,0.00,0.00,0.00,0.00,0.00,0.00,0.00,0.00,0.00,0.00,0.00,0.00,0.00,0.00,0.00,0.00,0.00,0.00,0.00,0.00,0.00,0.00,0.00,0.00,0.00,0.00,0.00,0.00,0.00,0.00,0.00,0.00,0.00,0.00,0.00,0.00,0.00,0.00,0.00,0.00,0.00,0.00,0.00,0.00,0.00,0.00,0.00,0.00,0.00,0.00,0.00,0.00,0.00,0.00,0.00,0.00,0.00,0.00,0.00,0.00,0.00,0.00,0.00,0.00,0.00,0.00,0.00,0.00,0.00,0.00,0.00,0.00,0.00,0.00,0.00,0.00,0.00,0.00,0.00,0.00,0.00,0.00,0.00,0.00,0.00,0.00,0.00,0.00,0.00,0.00,0.00,0.00,0.00,0.00,0.00
0.00,0.00,0.00,0.00,0.00,0.00,0.00,0.00,0.00,0.00,0.00,0.00,1585.52,1606.01,1613.46,1617.34,1621.13,1624.89,1622.21,1619.36,1614.89,1610.98,1607.33,1598.93,1587.26,0.00,0.00,0.00,0.00,0.00,0.00,0.00,0.00,0.00,0.00,0.00,0.00,0.00,0.00,0.00,0.00,0.00,0.00,0.00,0.00,0.00,0.00,0.00,0.00,0.00,0.00,0.00,0.00,0.00,0.00,0.00,0.00,0.00,0.00,0.00,0.00,0.00,0.00,0.00,0.00,0.00,0.00,0.00,0.00,0.00,0.00,0.00,0.00,0.00,1632.87,1642.76,1648.85,1651.02,1651.88,1653.70,1655.07,1656.26,1657.54,1658.49,1658.86,1660.13,1659.51,1658.54,1657.48,1659.00,1660.62,1661.97,1663.40,1663.50,1663.35,1663.68,1664.34,1664.20,1664.67,1664.77,1666.68,1667.18,1668.44,1667.44,1668.63,1669.80,1671.92,1672.99,1673.38,1672.05,1670.39,1670.27,1670.97,1671.97,1673.11,1674.37,1676.05,1676.68,1676.99,1676.95,1677.49,1678.32,1679.10,1678.33,1677.57,1675.70,1676.57,1676.91,1678.49,1680.26,1679.93,1679.97,1679.08,1679.99,1679.95,1680.28,1682.89,1684.13,1686.21,1684.75,1684.18,1683.02,1683.88,1684.24,1685.02,1685.56,1686.59,1687.32,1688.42,1689.32,1689.25,1689.78,1691.10,1691.61,1691.60,1690.66,1691.13,1690.56,1690.71,1690.62,1691.04,1693.06,1693.72,1694.91,1693.11,1694.69,1694.36,1696.40,1695.76,1696.61,1696.74,1697.01,1696.99,1696.46,1696.03,1696.49,1698.44,1700.24,1702.15,1699.97,1700.20,1699.89,1701.53,1700.69,1700.62,1702.53,1702.93,1703.08,1701.67,1702.86,1703.53,1703.44,1703.32,1703.80,1704.89,1706.51,1707.87,1708.69,1708.97,1709.41,1709.90,1710.00,1709.48,1709.06,1709.00,1710.79,1711.83,1712.28,1711.11,1711.18,1710.98,1711.79,1712.57,1713.82,1713.38,1714.28,1714.96,1716.01,1715.71,1715.31,1716.50,1717.69,1717.97,1718.07,1717.13,1718.00,1719.22,1721.20,1720.57,1719.76,1719.86,1721.53,1722.78,1721.92,1721.60,1720.67,1722.38,1723.50,1724.10,1723.99,1723.30,1724.95,1726.00,1726.47,1727.61,1730.41,1733.27,1734.80,0.00,0.00,0.00,0.00,0.00,0.00,0.00,0.00,0.00,0.00,706.08,708.71,706.95,704.15,700.70,697.30,693.87,691.93,691.38,689.69,685.27,679.96,676.26,675.29,674.60,672.96,670.23,668.46,665.66,663.08,659.91,658.99,657.10,657.86,658.68,659.85,660.60,660.19,660.36,660.09,659.43,657.84,656.34,655.30,655.89,655.86,656.24,654.88,653.78,653.96,655.04,655.22,655.88,656.30,658.47,659.54,660.81,661.18,661.15,662.09,662.54,664.69,664.36,664.71,664.78,666.86,669.80,670.26,668.82,668.01,669.69,673.60,676.03,677.91,679.05,680.36,681.28,682.66,684.75,687.16,692.68,700.07,703.83,704.27,704.33,706.23,706.79,708.56,709.08,712.29,712.49,713.83,713.02,714.22,712.66,708.39,674.09,0.00,0.00,0.00,0.00,0.00,0.00,0.00,0.00,0.00,0.00,0.00,0.00,0.00,0.00,0.00,0.00,0.00,0.00,0.00,0.00,0.00,0.00,0.00,0.00,0.00,0.00,0.00,0.00,0.00,0.00,0.00,0.00,0.00,0.00,0.00,0.00,0.00,0.00,0.00,0.00,0.00,0.00,0.00,0.00,0.00,0.00,0.00,0.00,0.00,0.00,0.00,0.00,0.00,0.00,0.00,0.00,0.00,0.00,0.00,0.00,0.00,0.00,0.00,0.00,0.00,0.00,0.00,0.00,0.00,0.00,0.00,0.00,0.00,0.00,0.00,0.00,0.00,0.00,0.00,0.00,0.00,0.00,0.00,0.00,0.00,0.00,0.00,0.00,0.00,0.00,0.00,0.00,0.00,0.00,0.00,0.00,0.00,0.00,0.00,0.00,0.00,0.00,0.00,0.00,0.00,0.00,0.00,0.00,0.00,0.00,0.00,0.00,0.00,0.00,0.00,0.00,0.00,0.00,0.00,0.00,0.00,0.00,0.00,0.00,0.00,0.00,0.00,0.00,0.00,0.00,0.00,0.00,0.00,0.00,0.00,0.00,0.00,0.00,0.00,0.00,0.00,0.00,0.00,0.00,0.00,0.00,0.00,0.00,0.00,0.00
0.00,0.00,0.00,0.00,0.00,0.00,0.00,0.00,0.00,0.00,0.00,0.00,1580.78,1602.46,1612.39,1616.36,1619.26,1624.09,1624.66,1625.75,1624.92,1625.61,1624.13,1624.04,1622.95,1619.62,1612.24,1596.01,0.00,0.00,0.00,0.00,0.00,0.00,0.00,0.00,0.00,0.00,0.00,0.00,0.00,0.00,0.00,0.00,0.00,0.00,0.00,0.00,0.00,0.00,0.00,0.00,0.00,0.00,0.00,0.00,0.00,0.00,0.00,0.00,0.00,0.00,0.00,0.00,0.00,0.00,0.00,0.00,0.00,0.00,0.00,0.00,0.00,0.00,0.00,0.00,1637.33,1645.47,1650.23,1655.07,1655.82,1656.23,1656.22,1658.68,1658.79,1660.27,1660.25,1660.68,1659.10,1659.29,1660.20,1661.95,1663.41,1664.41,1664.32,1665.00,1664.55,1666.08,1666.61,1668.19,1668.04,1668.85,1668.48,1669.11,1670.19,1672.64,1673.19,1675.58,1675.88,1674.69,1671.44,1671.59,1672.24,1673.60,1673.44,1675.26,1676.00,1677.10,1676.69,1677.36,1677.92,1678.93,1678.91,1677.96,1678.13,1677.76,1678.59,1678.47,1679.49,1681.54,1682.28,1681.81,1680.66,1680.17,1680.60,1680.75,1684.04,1685.82,1687.23,1686.29,1685.70,1685.31,1686.12,1686.14,1686.35,1686.69,1688.20,1690.01,1689.96,1690.37,1688.90,1690.09,1691.27,1691.91,1691.96,1690.61,1690.74,1690.31,1691.98,1693.38,1693.76,1694.87,1694.75,1695.34,1694.70,1695.96,1696.59,1697.62,1697.70,1697.85,1697.74,1698.33,1698.46,1698.58,1698.17,1697.94,1698.78,1700.31,1702.55,1701.93,1700.84,1700.36,1701.32,1701.19,1701.38,1702.92,1704.51,1704.56,1703.91,1704.52,1706.46,1706.49,1707.04,1707.14,1707.39,1707.60,1708.45,1709.51,1710.40,1710.01,1709.15,1708.46,1708.51,1709.32,1709.86,1711.65,1712.89,1713.53,1712.44,1712.79,1712.46,1712.77,1713.50,1714.01,1714.32,1714.21,1715.06,1715.23,1716.03,1716.94,1719.26,1720.04,1719.51,1719.06,1718.20,1719.31,1720.51,1722.04,1722.14,1721.58,1720.86,1721.46,1722.08,1722.26,1722.51,1722.08,1722.84,1723.36,1723.51,1724.35,1724.68,1726.50,1726.65,1726.32,1727.53,1729.74,1733.80,1736.80,0.00,0.00,0.00,0.00,0.00,0.00,0.00,0.00,0.00,0.00,704.85,707.47,705.86,703.57,699.28,695.33,691.34,690.99,688.96,687.14,682.12,676.84,671.35,669.41,669.72,670.47,667.25,666.04,662.92,661.14,657.91,656.56,655.22,655.55,655.89,657.02,657.72,658.13,657.48,656.18,655.42,654.68,654.50,653.13,653.04,653.36,654.42,654.60,654.01,653.33,653.62,653.34,654.20,653.94,654.84,656.26,658.32,659.82,659.84,661.22,660.59,662.57,661.85,663.57,662.65,664.32,665.36,666.76,665.17,665.71,667.60,672.54,674.87,676.85,677.06,678.68,679.68,680.48,681.14,683.62,691.23,700.26,703.61,704.00,703.53,704.94,705.56,707.93,708.58,710.83,710.64,711.62,711.24,711.43,708.37,692.11,0.00,0.00,0.00,0.00,0.00,0.00,0.00,0.00,0.00,0.00,0.00,0.00,0.00,0.00,0.00,0.00,0.00,0.00,0.00,0.00,0.00,0.00,0.00,0.00,0.00,0.00,0.00,0.00,0.00,0.00,0.00,0.00,0.00,0.00,0.00,0.00,0.00,0.00,0.00,0.00,0.00,0.00,0.00,0.00,0.00,0.00,0.00,0.00,0.00,0.00,0.00,0.00,0.00,0.00,0.00,0.00,0.00,0.00,0.00,0.00,0.00,0.00,0.00,0.00,0.00,0.00,0.00,0.00,0.00,0.00,0.00,0.00,0.00,0.00,0.00,0.00,0.00,0.00,0.00,0.00,0.00,0.00,0.00,0.00,0.00,0.00,0.00,0.00,0.00,0.00,0.00,0.00,0.00,0.00,0.00,0.00,0.00,0.00,0.00,0.00,0.00,0.00,0.00,0.00,0.00,0.00,0.00,0.00,0.00,0.00,0.00,0.00,0.00,0.00,0.00,0.00,0.00,0.00,0.00,0.00,0.00,0.00,0.00,0.00,0.00,0.00,0.00,0.00,0.00,0.00,0.00,0.00,0.00,0.00,0.00,0.00,0.00,0.00,0.00,0.00,0.00,0.00,0.00,0.00,0.00,0.00,0.00,0.00,0.00,0.00,0.00
0.00,0.00,0.00,0.00,0.00,0.00,0.00,0.00,0.00,0.00,0.00,0.00,1569.10,1602.12,1616.14,1618.90,1621.54,1625.95,1630.15,1629.95,1630.69,1630.85,1632.59,1634.18,1637.40,1636.92,1632.69,1625.16,1613.96,1600.63,0.00,0.00,0.00,0.00,0.00,0.00,0.00,0.00,0.00,0.00,0.00,0.00,0.00,0.00,0.00,0.00,0.00,0.00,0.00,0.00,0.00,0.00,0.00,0.00,0.00,0.00,0.00,0.00,0.00,0.00,0.00,0.00,0.00,0.00,0.00,0.00,0.00,0.00,0.00,0.00,0.00,0.00,0.00,0.00,0.00,0.00,0.00,1629.00,1644.07,1654.04,1658.22,1658.48,1660.34,1662.01,1662.48,1662.16,1664.16,1665.03,1664.71,1664.10,1665.72,1666.54,1666.90,1667.25,1666.81,1668.66,1668.92,1671.57,1671.63,1672.74,1671.46,1671.61,1671.00,1672.57,1674.87,1676.66,1677.66,1678.30,1679.33,1677.83,1676.23,1676.27,1677.14,1677.29,1677.24,1678.87,1680.03,1681.02,1680.61,1680.98,1681.89,1682.40,1682.30,1681.11,1681.72,1681.68,1682.59,1682.36,1683.70,1683.94,1685.34,1684.54,1684.88,1683.68,1685.03,1685.43,1687.89,1689.19,1690.16,1689.62,1689.79,1690.53,1690.94,1689.96,1691.14,1692.85,1694.86,1694.06,1693.51,1694.10,1694.19,1695.05,1695.05,1694.96,1694.76,1694.85,1695.70,1696.40,1696.95,1696.83,1697.00,1698.06,1699.00,1698.58,1699.01,1699.19,1700.44,1700.21,1701.18,1702.28,1703.09,1703.12,1702.60,1702.64,1703.65,1702.98,1703.62,1704.23,1706.35,1706.39,1705.44,1704.98,1705.33,1705.77,1706.20,1707.21,1708.68,1708.52,1709.18,1709.08,1710.98,1710.84,1711.88,1712.17,1712.82,1713.25,1714.33,1715.63,1716.43,1716.08,1713.90,1713.25,1713.21,1715.12,1716.10,1716.71,1716.90,1716.92,1717.43,1718.65,1718.08,1717.82,1717.73,1718.92,1719.68,1720.59,1720.72,1720.18,1720.20,1720.58,1722.60,1723.05,1723.74,1722.99,1723.09,1723.47,1724.51,1726.03,1726.24,1726.44,1724.90,1725.75,1726.02,1727.15,1727.29,1728.06,1727.29,1727.22,1727.23,1729.45,1731.18,1732.30,1732.19,1731.34,1733.01,1735.50,1741.41,1744.10,1744.20,0.00,0.00,0.00,0.00,0.00,0.00,0.00,0.00,0.00,707.74,711.01,710.68,706.24,701.85,697.94,695.32,693.87,690.91,687.83,684.51,679.83,675.47,672.07,672.19,671.33,669.38,668.13,665.64,663.34,659.48,657.63,656.17,656.55,657.58,658.29,659.07,658.73,659.02,657.03,657.21,656.87,657.62,656.12,655.43,655.40,656.26,656.95,657.59,658.04,658.75,657.01,656.47,655.19,657.04,658.79,661.45,662.83,663.48,664.40,664.18,665.12,665.68,666.26,665.89,665.58,666.75,668.33,668.74,670.37,672.43,675.64,676.92,677.80,678.84,680.96,681.92,683.03,683.67,686.56,694.83,704.84,708.91,708.43,707.72,707.93,709.30,710.66,711.88,712.44,712.01,712.62,712.93,712.91,705.17,0.00,0.00,0.00,0.00,0.00,0.00,0.00,0.00,0.00,0.00,0.00,0.00,0.00,0.00,0.00,0.00,0.00,0.00,0.00,0.00,0.00,0.00,0.00,0.00,0.00,0.00,0.00,0.00,0.00,0.00,0.00,0.00,0.00,0.00,0.00,0.00,0.00,0.00,0.00,0.00,0.00,0.00,0.00,0.00,0.00,0.00,0.00,0.00,0.00,0.00,0.00,0.00,0.00,0.00,0.00,0.00,0.00,0.00,0.00,0.00,0.00,0.00,0.00,0.00,0.00,0.00,0.00,0.00,0.00,0.00,0.00,0.00,0.00,0.00,0.00,0.00,0.00,0.00,0.00,0.00,0.00,0.00,0.00,0.00,0.00,0.00,0.00,0.00,0.00,0.00,0.00,0.00,0.00,0.00,0.00,0.00,0.00,0.00,0.00,0.00,0.00,0.00,0.00,0.00,0.00,0.00,0.00,0.00,0.00,0.00,0.00,0.00,0.00,0.00,0.00,0.00,0.00,0.00,0.00,0.00,0.00,0.00,0.00,0.00,0.00,0.00,0.00,0.00,0.00,0.00,0.00,0.00,0.00,0.00,0.00,0.00,0.00,0.00,0.00,0.00,0.00,0.00,0.00,0.00,0.00,0.00,0.00,0.00,0.00,0.00,0.00,0.00
0.00,0.00,0.00,0.00,0.00,0.00,0.00,0.00,0.00,0.00,0.00,0.00,1558.34,1598.77,1614.63,1618.00,1618.15,1621.16,1626.16,1628.65,1631.03,1632.20,1634.92,1635.39,1639.12,1640.95,1642.26,1640.75,1637.04,1631.09,1624.77,1619.38,1608.37,0.00,0.00,0.00,0.00,0.00,0.00,0.00,0.00,0.00,0.00,0.00,0.00,0.00,0.00,0.00,0.00,0.00,0.00,0.00,0.00,0.00,0.00,0.00,0.00,0.00,0.00,0.00,0.00,0.00,0.00,0.00,0.00,0.00,0.00,0.00,0.00,0.00,0.00,0.00,0.00,0.00,0.00,0.00,0.00,0.00,0.00,1641.22,1650.10,1654.68,1657.48,1660.41,1660.38,1662.21,1664.30,1666.25,1665.61,1665.29,1666.50,1668.01,1667.34,1667.78,1666.35,1668.94,1669.37,1672.68,1672.37,1673.22,1671.85,1672.09,1670.78,1671.31,1671.96,1674.19,1675.38,1677.36,1676.99,1676.68,1676.82,1678.65,1679.29,1679.26,1679.23,1678.97,1679.19,1681.03,1681.93,1682.34,1682.49,1683.17,1682.74,1681.24,1682.49,1682.60,1683.95,1683.49,1684.47,1684.11,1685.63,1685.74,1686.04,1685.40,1687.51,1688.71,1689.93,1689.70,1691.01,1690.74,1690.46,1690.29,1691.21,1690.70,1691.55,1692.67,1695.02,1694.15,1692.87,1693.23,1693.27,1695.37,1694.99,1695.35,1695.13,1696.41,1697.33,1697.69,1697.16,1697.17,1697.21,1698.77,1700.30,1699.78,1699.45,1699.31,1701.28,1701.71,1702.48,1703.18,1704.10,1703.78,1704.27,1705.10,1706.63,1705.34,1705.58,1704.51,1705.99,1705.65,1705.64,1705.83,1705.73,1706.77,1706.79,1708.66,1710.82,1710.64,1711.01,1711.34,1713.94,1713.34,1713.07,1712.54,1714.23,1714.41,1715.99,1716.98,1718.26,1717.84,1715.88,1715.41,1715.77,1715.93,1716.68,1716.36,1717.69,1717.47,1719.21,1719.87,1720.11,1719.52,1719.91,1719.88,1721.11,1722.01,1722.25,1720.66,1720.87,1721.09,1722.84,1723.13,1724.52,1724.59,1724.56,1725.57,1726.95,1728.04,1727.44,1727.01,1725.79,1726.54,1726.17,1727.80,1728.14,1729.57,1729.06,1729.44,1729.57,1730.97,1731.87,1733.22,1734.35,1735.73,1737.47,1739.19,1742.56,1743.79,1745.19,0.00,0.00,0.00,0.00,0.00,0.00,0.00,0.00,0.00,693.94,707.46,709.43,704.75,699.69,695.33,692.24,690.47,686.30,683.35,679.23,677.07,674.18,672.78,672.11,669.76,665.27,663.43,660.79,658.99,655.61,653.30,652.81,652.53,654.29,654.77,656.38,655.55,655.87,653.53,654.24,653.33,654.41,653.59,653.16,654.00,654.22,655.38,655.67,656.78,656.04,654.85,654.07,654.36,655.16,657.27,659.32,661.09,660.70,661.66,660.63,661.50,661.89,663.28,663.05,663.55,664.10,666.35,667.50,669.42,670.76,672.91,675.29,676.64,677.79,679.80,679.91,680.52,680.98,686.65,695.05,705.33,709.64,710.66,710.48,710.40,709.46,708.59,708.78,710.39,711.26,712.29,710.43,707.76,0.00,0.00,0.00,0.00,0.00,0.00,0.00,0.00,0.00,0.00,0.00,0.00,0.00,0.00,0.00,0.00,0.00,0.00,0.00,0.00,0.00,0.00,0.00,0.00,0.00,0.00,0.00,0.00,0.00,0.00,0.00,0.00,0.00,0.00,0.00,0.00,0.00,0.00,0.00,0.00,0.00,0.00,0.00,0.00,0.00,0.00,0.00,0.00,0.00,0.00,0.00,0.00,0.00,0.00,0.00,0.00,0.00,0.00,0.00,0.00,0.00,0.00,0.00,0.00,0.00,0.00,0.00,0.00,0.00,0.00,0.00,0.00,0.00,0.00,0.00,0.00,0.00,0.00,0.00,0.00,0.00,0.00,0.00,0.00,0.00,0.00,0.00,0.00,0.00,0.00,0.00,0.00,0.00,0.00,0.00,0.00,0.00,0.00,0.00,0.00,0.00,0.00,0.00,0.00,0.00,0.00,0.00,0.00,0.00,0.00,0.00,0.00,0.00,0.00,0.00,0.00,0.00,0.00,0.00,0.00,0.00,0.00,0.00,0.00,0.00,0.00,0.00,0.00,0.00,0.00,0.00,0.00,0.00,0.00,0.00,0.00,0.00,0.00,0.00,0.00,0.00,0.00,0.00,0.00,0.00,0.00,0.00,0.00,0.00,0.00,0.00,0.00,0.00
0.00,0.00,0.00,0.00,0.00,0.00,0.00,0.00,0.00,0.00,0.00,0.00,0.00,1597.75,1616.40,1623.73,1626.61,1629.17,1631.84,1631.41,1634.14,1635.27,1639.73,1640.22,1643.69,1644.19,1646.74,1646.38,1646.90,1645.60,1643.86,1640.57,1634.81,1626.90,1616.05,0.00,0.00,0.00,0.00,0.00,0.00,0.00,0.00,0.00,0.00,0.00,0.00,0.00,0.00,0.00,0.00,0.00,0.00,0.00,0.00,0.00,0.00,0.00,0.00,0.00,0.00,0.00,0.00,0.00,0.00,0.00,0.00,0.00,0.00,0.00,0.00,0.00,0.00,0.00,0.00,0.00,0.00,0.00,0.00,0.00,0.00,1644.49,1655.25,1660.60,1662.49,1664.19,1666.72,1669.44,1669.65,1668.70,1669.20,1671.27,1671.10,1670.42,1668.86,1671.35,1671.69,1673.21,1673.07,1674.56,1675.13,1676.17,1675.45,1674.41,1674.37,1675.39,1677.89,1678.81,1679.54,1679.28,1680.98,1681.85,1681.84,1681.54,1682.14,1682.41,1683.52,1685.11,1685.53,1685.59,1686.04,1687.21,1686.89,1685.86,1686.38,1686.83,1688.73,1688.18,1688.17,1686.87,1687.96,1688.11,1689.60,1691.11,1692.96,1693.87,1694.66,1693.61,1693.56,1692.93,1693.70,1693.08,1692.80,1693.50,1695.21,1697.09,1699.01,1699.00,1697.76,1698.30,1698.94,1700.48,1699.06,1699.26,1699.79,1701.39,1702.11,1701.59,1701.43,1700.87,1701.95,1702.68,1704.50,1704.17,1703.35,1703.35,1703.76,1704.90,1705.76,1707.69,1708.54,1707.47,1708.25,1708.12,1709.59,1709.08,1710.19,1709.62,1709.89,1708.97,1710.06,1710.46,1711.39,1711.98,1712.87,1714.34,1715.64,1715.03,1714.67,1715.06,1716.24,1716.08,1715.11,1715.65,1717.61,1718.35,1719.76,1720.61,1722.03,1722.02,1720.95,1721.25,1721.44,1721.70,1722.21,1722.21,1723.30,1722.65,1724.32,1724.22,1724.39,1724.55,1724.98,1725.38,1726.06,1727.24,1727.96,1726.60,1726.14,1724.54,1725.82,1727.19,1730.38,1729.50,1729.97,1730.35,1732.44,1732.08,1730.99,1731.29,1731.63,1732.59,1732.37,1734.04,1734.54,1735.41,1733.87,1734.31,1734.19,1735.36,1735.24,1735.45,1737.49,1740.01,1742.88,1744.72,1746.60,1747.00,1750.30,0.00,0.00,0.00,0.00,0.00,0.00,0.00,0.00,0.00,677.63,706.39,709.76,705.58,701.01,697.74,695.48,693.17,688.91,684.47,680.75,678.35,677.08,675.70,674.94,671.71,666.87,663.24,661.23,659.80,657.88,654.72,654.06,652.82,655.69,656.46,658.31,655.81,656.07,654.83,656.35,655.10,656.62,655.81,656.24,655.14,655.25,656.26,657.47,658.32,657.42,656.53,656.34,656.91,658.53,659.79,661.75,662.45,663.41,663.53,663.99,664.18,665.24,665.77,666.90,667.41,668.61,670.02,672.73,674.38,675.33,675.51,677.43,678.94,680.04,681.35,680.94,682.22,684.35,690.19,698.30,709.04,716.51,718.30,717.62,716.04,714.07,712.41,712.01,714.08,714.74,715.21,710.80,691.34,0.00,0.00,0.00,0.00,0.00,0.00,0.00,0.00,0.00,0.00,0.00,0.00,0.00,0.00,0.00,0.00,0.00,0.00,0.00,0.00,0.00,0.00,0.00,0.00,0.00,0.00,0.00,0.00,0.00,0.00,0.00,0.00,0.00,0.00,0.00,0.00,0.00,0.00,0.00,0.00,0.00,0.00,0.00,0.00,0.00,0.00,0.00,0.00,0.00,0.00,0.00,0.00,0.00,0.00,0.00,0.00,0.00,0.00,0.00,0.00,0.00,0.00,0.00,0.00,0.00,0.00,0.00,0.00,0.00,0.00,0.00,0.00,0.00,0.00,0.00,0.00,0.00,0.00,0.00,0.00,0.00,0.00,0.00,0.00,0.00,0.00,0.00,0.00,0.00,0.00,0.00,0.00,0.00,0.00,0.00,0.00,0.00,0.00,0.00,0.00,0.00,0.00,0.00,0.00,0.00,0.00,0.00,0.00,0.00,0.00,0.00,0.00,0.00,0.00,0.00,0.00,0.00,0.00,0.00,0.00,0.00,0.00,0.00,0.00,0.00,0.00,0.00,0.00,0.00,0.00,0.00,0.00,0.00,0.00,0.00,0.00,0.00,0.00,0.00,0.00,0.00,0.00,0.00,0.00,0.00,0.00,0.00,0.00,0.00,0.00,0.00,0.00,0.00
0.00,0.00,0.00,0.00,0.00,0.00,0.00,0.00,0.00,0.00,0.00,0.00,0.00,1593.96,1612.12,1623.46,1626.26,1629.22,1630.24,1630.63,1633.39,1636.61,1641.85,1641.52,1642.94,1643.09,1646.29,1646.24,1647.89,1648.64,1649.43,1648.34,1645.72,1644.27,1640.36,1634.98,1627.90,1613.65,0.00,0.00,0.00,0.00,0.00,0.00,0.00,0.00,0.00,0.00,0.00,0.00,0.00,0.00,0.00,0.00,0.00,0.00,0.00,0.00,0.00,0.00,0.00,0.00,0.00,0.00,0.00,0.00,0.00,0.00,0.00,0.00,0.00,0.00,0.00,0.00,0.00,0.00,0.00,0.00,0.00,0.00,0.00,0.00,1640.61,1651.43,1658.36,1663.33,1665.52,1667.56,1667.04,1666.34,1666.07,1669.45,1670.43,1671.22,1670.04,1671.67,1670.41,1671.56,1672.38,1675.10,1676.19,1678.10,1678.10,1677.04,1675.64,1675.99,1676.62,1678.23,1678.75,1680.03,1681.15,1682.21,1681.68,1681.48,1681.55,1682.47,1683.43,1685.38,1685.37,1686.07,1686.70,1688.41,1688.88,1688.73,1689.23,1690.10,1690.29,1689.39,1687.77,1688.60,1689.49,1689.44,1689.44,1691.57,1692.41,1693.76,1694.56,1694.69,1694.24,1693.95,1695.39,1694.44,1693.65,1694.59,1696.26,1697.49,1698.50,1699.39,1698.52,1698.70,1698.75,1700.58,1699.79,1700.32,1700.98,1702.55,1702.24,1701.54,1701.53,1702.30,1702.90,1704.03,1705.37,1705.32,1703.65,1704.70,1705.67,1707.49,1707.75,1708.38,1708.29,1707.87,1709.66,1710.08,1711.33,1710.92,1711.21,1710.27,1709.91,1710.23,1711.11,1712.78,1713.21,1714.22,1714.34,1715.49,1716.10,1715.21,1714.76,1715.30,1717.10,1717.24,1716.79,1717.07,1718.49,1719.02,1720.18,1720.96,1721.40,1721.67,1721.60,1721.79,1721.45,1720.74,1721.55,1722.34,1724.91,1725.35,1726.40,1726.14,1726.28,1726.40,1726.94,1727.63,1728.05,1727.79,1727.67,1727.75,1728.39,1728.15,1728.86,1730.00,1731.40,1730.96,1730.93,1731.32,1733.08,1732.05,1731.59,1731.13,1732.80,1733.08,1733.22,1735.31,1736.10,1736.68,1735.05,1735.57,1735.40,1735.11,1734.79,1734.54,1736.60,1739.59,1742.43,1743.93,1745.15,1745.81,1750.76,0.00,0.00,0.00,0.00,0.00,0.00,0.00,0.00,0.00,0.00,700.23,704.68,704.57,700.61,697.79,693.89,692.08,687.06,683.42,678.31,674.76,671.36,670.74,670.90,667.88,661.10,657.35,656.59,656.72,655.72,652.01,651.80,650.99,652.34,652.34,653.82,653.43,653.35,652.27,653.05,651.28,652.20,651.55,652.76,652.58,652.95,653.93,654.30,655.05,654.50,655.73,656.05,656.74,656.15,656.13,656.68,657.50,659.15,659.51,659.96,660.90,662.36,664.44,665.65,667.17,667.34,668.31,669.71,670.92,672.39,672.72,675.13,676.11,677.73,678.29,678.57,680.27,683.28,689.67,697.00,708.46,715.66,720.33,718.51,717.40,713.86,712.79,712.29,714.69,714.55,712.46,700.50,0.00,0.00,0.00,0.00,0.00,0.00,0.00,0.00,0.00,0.00,0.00,0.00,0.00,0.00,0.00,0.00,0.00,0.00,0.00,0.00,0.00,0.00,0.00,0.00,0.00,0.00,0.00,0.00,0.00,0.00,0.00,0.00,0.00,0.00,0.00,0.00,0.00,0.00,0.00,0.00,0.00,0.00,0.00,0.00,0.00,0.00,0.00,0.00,0.00,0.00,0.00,0.00,0.00,0.00,0.00,0.00,0.00,0.00,0.00,0.00,0.00,0.00,0.00,0.00,0.00,0.00,0.00,0.00,0.00,0.00,0.00,0.00,0.00,0.00,0.00,0.00,0.00,0.00,0.00,0.00,0.00,0.00,0.00,0.00,0.00,0.00,0.00,0.00,0.00,0.00,0.00,0.00,0.00,0.00,0.00,0.00,0.00,0.00,0.00,0.00,0.00,0.00,0.00,0.00,0.00,0.00,0.00,0.00,0.00,0.00,0.00,0.00,0.00,0.00,0.00,0.00,0.00,0.00,0.00,0.00,0.00,0.00,0.00,0.00,0.00,0.00,0.00,0.00,0.00,0.00,0.00,0.00,0.00,0.00,0.00,0.00,0.00,0.00,0.00,0.00,0.00,0.00,0.00,0.00,0.00,0.00,0.00,0.00,0.00,0.00,0.00,0.00,0.00,0.00
0.00,0.00,0.00,0.00,0.00,0.00,0.00,0.00,0.00,0.00,0.00,0.00,0.00,1582.79,1609.82,1626.16,1631.82,1634.84,1634.16,1633.19,1634.96,1638.43,1643.02,1643.61,1644.99,1645.73,1649.26,1649.90,1652.47,1652.18,1654.05,1652.83,1652.10,1652.25,1651.57,1650.22,1646.57,1639.85,1632.07,1622.36,0.00,0.00,0.00,0.00,0.00,0.00,0.00,0.00,0.00,0.00,0.00,0.00,0.00,0.00,0.00,0.00,0.00,0.00,0.00,0.00,0.00,0.00,0.00,0.00,0.00,0.00,0.00,0.00,0.00,0.00,0.00,0.00,0.00,0.00,0.00,0.00,0.00,0.00,0.00,0.00,0.00,0.00,0.00,0.00,1650.29,1660.94,1666.72,1668.61,1669.06,1670.00,1670.83,1673.64,1673.34,1673.39,1673.56,1674.63,1674.71,1675.08,1676.57,1678.58,1679.25,1680.42,1680.45,1680.18,1680.83,1681.36,1681.81,1681.69,1682.50,1682.97,1683.28,1683.44,1684.06,1684.82,1685.39,1686.58,1687.86,1688.91,1688.32,1688.14,1688.66,1690.39,1692.03,1692.79,1693.08,1693.39,1693.12,1692.87,1691.98,1692.80,1693.43,1693.16,1693.90,1695.10,1695.31,1696.29,1696.93,1697.65,1696.26,1697.01,1699.13,1699.60,1698.33,1698.38,1700.40,1702.04,1703.00,1702.97,1701.81,1702.24,1703.97,1705.62,1704.56,1703.72,1704.78,1706.46,1706.13,1705.74,1706.71,1708.25,1709.07,1708.90,1710.48,1710.00,1709.03,1708.46,1709.54,1712.10,1712.25,1712.61,1711.83,1712.10,1713.25,1712.58,1714.30,1715.39,1716.56,1715.79,1715.65,1716.42,1716.57,1717.37,1718.07,1719.42,1720.06,1719.69,1719.95,1718.84,1719.36,1719.13,1720.56,1720.40,1720.08,1720.04,1721.81,1723.00,1723.95,1725.48,1726.13,1726.13,1725.48,1725.82,1725.83,1725.23,1725.56,1725.83,1727.84,1729.39,1731.23,1731.86,1731.23,1731.75,1731.97,1732.53,1732.09,1731.91,1732.39,1733.52,1734.25,1733.67,1733.30,1733.85,1735.11,1736.10,1736.82,1736.36,1736.41,1734.92,1735.78,1735.61,1737.15,1737.04,1737.78,1740.05,1740.78,1740.58,1739.20,1740.37,1740.67,1740.36,1740.10,1739.79,1739.57,1740.20,1743.50,1747.95,1750.77,1749.25,1754.03,0.00,0.00,0.00,0.00,0.00,0.00,0.00,0.00,0.00,0.00,699.60,705.99,707.55,703.46,700.47,696.84,695.06,690.67,686.17,681.12,676.46,672.74,670.24,671.05,666.90,660.63,656.30,656.80,657.05,657.79,655.08,655.44,653.99,654.67,653.84,654.29,653.41,653.40,653.19,654.38,654.19,655.34,653.91,654.48,653.62,654.62,655.81,656.66,656.82,656.87,657.85,659.84,660.21,659.15,657.61,657.61,659.23,661.30,662.31,664.00,664.97,666.41,667.26,668.40,669.54,670.09,670.81,671.87,673.52,675.24,674.63,675.28,676.22,678.04,678.48,679.12,682.46,686.64,692.85,700.29,712.36,720.96,726.17,724.57,722.32,717.91,716.67,717.59,718.07,712.73,701.57,0.00,0.00,0.00,0.00,0.00,0.00,0.00,0.00,0.00,0.00,0.00,0.00,0.00,0.00,0.00,0.00,0.00,0.00,0.00,0.00,0.00,0.00,0.00,0.00,0.00,0.00,0.00,0.00,0.00,0.00,0.00,0.00,0.00,0.00,0.00,0.00,0.00,0.00,0.00,0.00,0.00,0.00,0.00,0.00,0.00,0.00,0.00,0.00,0.00,0.00,0.00,0.00,0.00,0.00,0.00,0.00,0.00,0.00,0.00,0.00,0.00,0.00,0.00,0.00,0.00,0.00,0.00,0.00,0.00,0.00,0.00,0.00,0.00,0.00,0.00,0.00,0.00,0.00,0.00,0.00,0.00,0.00,0.00,0.00,0.00,0.00,0.00,0.00,0.00,0.00,0.00,0.00,0.00,0.00,0.00,0.00,0.00,0.00,0.00,0.00,0.00,0.00,0.00,0.00,0.00,0.00,0.00,0.00,0.00,0.00,0.00,0.00,0.00,0.00,0.00,0.00,0.00,0.00,0.00,0.00,0.00,0.00,0.00,0.00,0.00,0.00,0.00,0.00,0.00,0.00,0.00,0.00,0.00,0.00,0.00,0.00,0.00,0.00,0.00,0.00,0.00,0.00,0.00,0.00,0.00,0.00,0.00,0.00,0.00,0.00,0.00,0.00,0.00,0.00,0.00
0.00,0.00,0.00,0.00,0.00,0.00,0.00,0.00,0.00,0.00,0.00,0.00,0.00,1565.28,1605.42,1624.02,1629.00,1632.90,1633.69,1633.63,1633.82,1635.85,1639.77,1641.53,1642.88,1645.77,1649.59,1653.01,1655.08,1654.91,1655.52,1655.70,1655.72,1655.99,1656.01,1655.29,1653.85,1649.73,1650.03,1645.93,1641.55,1632.83,0.00,0.00,0.00,0.00,0.00,0.00,0.00,0.00,0.00,0.00,0.00,0.00,0.00,0.00,0.00,0.00,0.00,0.00,0.00,0.00,0.00,0.00,0.00,0.00,0.00,0.00,0.00,0.00,0.00,0.00,0.00,0.00,0.00,0.00,0.00,0.00,0.00,0.00,0.00,0.00,0.00,0.00,0.00,0.00,1658.56,1663.69,1667.09,1669.58,1670.97,1673.02,1672.06,1673.53,1674.11,1675.49,1676.30,1676.74,1677.06,1676.97,1676.73,1678.24,1678.72,1680.19,1680.53,1679.96,1678.29,1678.63,1679.85,1681.36,1681.78,1683.15,1684.58,1685.94,1686.76,1687.18,1687.78,1688.80,1689.40,1689.97,1690.02,1691.10,1692.54,1693.58,1693.31,1693.26,1691.92,1692.99,1693.10,1695.09,1695.33,1695.50,1695.56,1696.44,1696.27,1696.98,1696.31,1697.93,1697.24,1698.35,1698.93,1700.10,1699.29,1698.35,1699.93,1702.39,1704.00,1702.93,1701.88,1701.78,1703.63,1705.49,1705.92,1705.77,1706.24,1706.98,1706.20,1706.60,1707.65,1709.80,1709.58,1709.87,1710.32,1710.76,1709.12,1708.99,1710.05,1712.76,1712.42,1712.41,1712.29,1713.17,1714.42,1714.46,1715.52,1715.64,1716.27,1715.89,1717.03,1718.44,1719.19,1719.70,1719.94,1721.10,1720.21,1720.80,1720.93,1720.40,1720.50,1719.50,1721.71,1722.74,1723.76,1721.67,1721.15,1722.47,1724.95,1727.57,1727.29,1726.97,1725.96,1726.33,1725.92,1725.30,1726.61,1727.48,1728.62,1729.90,1731.08,1732.61,1732.21,1732.43,1732.51,1732.57,1732.33,1731.93,1731.91,1733.73,1734.76,1735.57,1734.92,1735.54,1736.18,1738.39,1739.22,1738.81,1737.63,1736.08,1737.43,1736.67,1737.34,1736.78,1738.24,1740.23,1740.74,1740.87,1740.01,1741.04,1740.76,1740.20,1740.91,1742.10,1741.25,1740.58,1742.39,1748.50,1750.86,1750.88,1753.83,1759.30,0.00,0.00,0.00,0.00,0.00,0.00,0.00,0.00,0.00,692.07,701.90,706.24,702.15,698.88,692.90,690.54,685.89,683.30,678.29,673.75,668.96,666.80,665.36,660.30,655.56,653.93,654.92,656.21,655.86,653.88,652.78,651.39,650.79,649.94,649.15,649.57,649.96,651.35,651.53,652.12,652.40,652.23,653.02,653.65,653.85,653.94,653.86,654.93,655.11,656.03,656.15,657.17,656.05,655.62,655.23,657.70,659.39,660.76,661.84,662.77,663.88,665.02,666.16,667.32,668.08,669.09,669.43,670.73,672.43,673.30,673.94,674.66,676.18,677.74,680.14,683.17,686.50,692.75,700.42,711.37,717.25,721.80,720.79,719.09,710.94,705.33,708.28,708.14,700.09,0.00,0.00,0.00,0.00,0.00,0.00,0.00,0.00,0.00,0.00,0.00,0.00,0.00,0.00,0.00,0.00,0.00,0.00,0.00,0.00,0.00,0.00,0.00,0.00,0.00,0.00,0.00,0.00,0.00,0.00,0.00,0.00,0.00,0.00,0.00,0.00,0.00,0.00,0.00,0.00,0.00,0.00,0.00,0.00,0.00,0.00,0.00,0.00,0.00,0.00,0.00,0.00,0.00,0.00,0.00,0.00,0.00,0.00,0.00,0.00,0.00,0.00,0.00,0.00,0.00,0.00,0.00,0.00,0.00,0.00,0.00,0.00,0.00,0.00,0.00,0.00,0.00,0.00,0.00,0.00,0.00,0.00,0.00,0.00,0.00,0.00,0.00,0.00,0.00,0.00,0.00,0.00,0.00,0.00,0.00,0.00,0.00,0.00,0.00,0.00,0.00,0.00,0.00,0.00,0.00,0.00,0.00,0.00,0.00,0.00,0.00,0.00,0.00,0.00,0.00,0.00,0.00,0.00,0.00,0.00,0.00,0.00,0.00,0.00,0.00,0.00,0.00,0.00,0.00,0.00,0.00,0.00,0.00,0.00,0.00,0.00,0.00,0.00,0.00,0.00,0.00,0.00,0.00,0.00,0.00,0.00,0.00,0.00,0.00,0.00,0.00,0.00,0.00,0.00,0.00,0.00
0.00,0.00,0.00,0.00,0.00,0.00,0.00,0.00,0.00,0.00,0.00,0.00,0.00,0.00,1603.24,1623.72,1632.69,1634.56,1636.27,1634.34,1632.73,1633.26,1639.16,1642.95,1644.39,1647.30,1651.04,1656.66,1658.92,1659.93,1660.59,1661.78,1663.47,1662.87,1662.41,1661.05,1659.71,1657.52,1659.03,1657.53,1656.33,1650.80,1645.59,1633.46,0.00,0.00,0.00,0.00,0.00,0.00,0.00,0.00,0.00,0.00,0.00,0.00,0.00,0.00,0.00,0.00,0.00,0.00,0.00,0.00,0.00,0.00,0.00,0.00,0.00,0.00,0.00,0.00,0.00,0.00,0.00,0.00,0.00,0.00,0.00,0.00,0.00,0.00,0.00,0.00,0.00,0.00,0.00,1654.99,1665.53,1672.09,1675.81,1677.19,1675.59,1676.38,1676.94,1677.75,1679.29,1679.23,1680.14,1679.20,1679.45,1680.22,1680.08,1679.78,1678.42,1677.14,1673.36,1673.51,1676.27,1678.37,1680.76,1683.90,1687.05,1688.57,1689.72,1690.25,1691.20,1691.37,1692.83,1693.66,1693.30,1693.56,1694.27,1695.79,1694.95,1694.09,1693.57,1695.22,1697.03,1698.33,1699.46,1699.92,1700.77,1700.10,1700.84,1701.17,1700.66,1701.29,1700.54,1702.40,1702.86,1704.36,1703.94,1703.30,1704.64,1705.31,1706.73,1706.10,1706.12,1705.54,1706.20,1708.08,1709.39,1710.03,1710.59,1710.73,1710.72,1710.77,1711.88,1713.12,1713.49,1713.53,1713.88,1714.01,1713.76,1712.95,1713.48,1715.22,1715.56,1716.54,1716.84,1717.49,1716.86,1716.32,1717.42,1719.34,1721.09,1722.07,1723.63,1724.23,1725.45,1724.87,1725.50,1725.30,1724.62,1724.81,1725.56,1725.00,1725.08,1724.02,1726.08,1727.05,1728.13,1726.65,1726.22,1727.70,1730.01,1732.35,1731.99,1731.16,1729.86,1730.36,1730.81,1730.88,1731.86,1731.65,1732.08,1732.95,1733.84,1734.88,1735.11,1736.40,1737.40,1736.20,1735.92,1735.80,1736.96,1738.09,1738.82,1738.61,1737.79,1738.38,1739.57,1742.02,1742.97,1745.17,1744.59,1743.13,1743.33,1743.26,1744.05,1742.74,1743.82,1744.29,1744.86,1744.84,1744.72,1745.89,1746.25,1746.46,1746.98,1746.45,1744.93,1743.91,1746.94,1752.74,1754.23,1753.20,1754.36,1760.73,0.00,0.00,0.00,0.00,0.00,0.00,0.00,0.00,0.00,684.93,703.29,707.87,702.92,698.11,692.45,689.66,686.14,682.16,678.87,674.02,670.45,666.88,664.05,660.65,657.41,656.25,655.98,657.23,658.35,656.95,654.47,651.57,652.31,651.42,651.45,650.82,652.17,652.84,653.25,654.04,654.65,654.09,654.99,656.17,656.20,656.49,656.84,657.65,657.22,657.22,657.74,658.85,658.46,659.49,659.90,661.87,663.21,664.17,665.93,666.38,666.89,667.13,667.78,669.30,670.63,671.92,673.24,674.63,676.42,676.85,676.58,677.50,679.15,682.82,684.88,687.11,689.56,696.45,705.86,713.93,719.73,720.81,720.47,716.19,708.58,702.73,704.26,703.88,691.84,0.00,0.00,0.00,0.00,0.00,0.00,0.00,0.00,0.00,0.00,0.00,0.00,0.00,0.00,0.00,0.00,0.00,0.00,0.00,0.00,0.00,0.00,0.00,0.00,0.00,0.00,0.00,0.00,0.00,0.00,0.00,0.00,0.00,0.00,0.00,0.00,0.00,0.00,0.00,0.00,0.00,0.00,0.00,0.00,0.00,0.00,0.00,0.00,0.00,0.00,0.00,0.00,0.00,0.00,0.00,0.00,0.00,0.00,0.00,0.00,0.00,0.00,0.00,0.00,0.00,0.00,0.00,0.00,0.00,0.00,0.00,0.00,0.00,0.00,0.00,0.00,0.00,0.00,0.00,0.00,0.00,0.00,0.00,0.00,0.00,0.00,0.00,0.00,0.00,0.00,0.00,0.00,0.00,0.00,0.00,0.00,0.00,0.00,0.00,0.00,0.00,0.00,0.00,0.00,0.00,0.00,0.00,0.00,0.00,0.00,0.00,0.00,0.00,0.00,0.00,0.00,0.00,0.00,0.00,0.00,0.00,0.00,0.00,0.00,0.00,0.00,0.00,0.00,0.00,0.00,0.00,0.00,0.00,0.00,0.00,0.00,0.00,0.00,0.00,0.00,0.00,0.00,0.00,0.00,0.00,0.00,0.00,0.00,0.00,0.00,0.00,0.00,0.00,0.00,0.00,0.00
0.00,0.00,0.00,0.00,0.00,0.00,0.00,0.00,0.00,0.00,0.00,0.00,0.00,0.00,1592.79,1619.49,1629.45,1632.11,1632.94,1632.30,1629.86,1631.20,1636.61,1640.80,1643.64,1646.75,1650.84,1654.25,1656.20,1658.33,1657.85,1658.87,1658.58,1659.35,1659.13,1658.48,1656.02,1656.28,1659.80,1662.69,1662.74,1659.56,1657.26,1651.90,1643.14,1633.36,0.00,0.00,0.00,0.00,0.00,0.00,0.00,0.00,0.00,0.00,0.00,0.00,0.00,0.00,0.00,0.00,0.00,0.00,0.00,0.00,0.00,0.00,0.00,0.00,0.00,0.00,0.00,0.00,0.00,0.00,0.00,0.00,0.00,0.00,0.00,0.00,0.00,0.00,0.00,0.00,0.00,0.00,0.00,1665.96,1671.78,1674.83,1675.05,1676.78,1676.37,1676.97,1677.89,1678.80,1679.51,1679.57,1679.88,1681.13,1678.47,1669.61,1655.43,1638.81,1646.28,1653.39,1661.64,1669.50,1675.08,1681.17,1685.49,1688.23,1689.58,1689.67,1689.58,1690.64,1693.38,1695.52,1695.10,1694.85,1694.42,1696.55,1694.60,1694.79,1692.48,1695.10,1695.85,1697.74,1698.04,1698.99,1699.83,1699.79,1701.00,1700.88,1700.93,1701.17,1701.19,1702.41,1702.26,1703.83,1703.91,1703.99,1705.19,1706.07,1706.93,1706.64,1706.52,1705.84,1706.18,1708.48,1709.86,1710.37,1711.03,1712.57,1713.15,1711.91,1711.03,1712.16,1712.74,1715.14,1714.15,1714.57,1712.87,1713.73,1714.40,1715.66,1716.52,1717.95,1718.60,1718.34,1716.15,1716.73,1718.21,1720.61,1720.81,1722.23,1723.32,1724.74,1725.22,1725.61,1725.51,1724.73,1724.53,1724.71,1725.99,1725.59,1725.44,1724.00,1725.71,1727.58,1730.56,1729.51,1728.57,1728.55,1730.95,1733.57,1733.29,1733.17,1731.86,1732.49,1732.21,1733.40,1734.36,1734.60,1734.94,1735.51,1734.99,1735.44,1736.10,1737.68,1738.69,1737.55,1738.11,1737.55,1738.67,1738.80,1738.38,1738.71,1738.12,1739.66,1740.89,1742.59,1743.77,1746.02,1747.14,1746.62,1745.58,1745.17,1745.27,1744.52,1745.09,1745.62,1747.29,1747.78,1747.67,1747.32,1747.24,1747.86,1748.17,1747.46,1745.68,1745.56,1748.08,1753.19,1755.01,1754.23,1751.72,1752.68,0.00,0.00,0.00,0.00,0.00,0.00,0.00,0.00,0.00,0.00,699.82,705.23,700.99,695.79,689.77,685.58,682.63,678.48,676.21,670.91,667.08,662.69,658.53,656.45,653.63,653.93,653.12,655.50,655.53,654.99,651.08,649.91,649.83,649.33,648.84,648.60,650.89,650.86,651.51,650.83,650.43,649.79,650.64,652.83,652.90,653.63,653.81,655.79,655.39,655.48,654.22,655.67,656.07,657.99,658.46,660.74,662.57,663.40,663.44,664.03,663.80,664.85,664.97,668.21,669.78,672.48,672.66,672.62,673.03,673.93,674.99,675.90,678.41,682.55,685.81,686.96,689.18,695.35,705.38,712.48,716.43,717.65,717.53,713.93,707.98,703.47,699.48,691.07,0.00,0.00,0.00,0.00,0.00,0.00,0.00,0.00,0.00,0.00,0.00,0.00,0.00,0.00,0.00,0.00,0.00,0.00,0.00,0.00,0.00,0.00,0.00,0.00,0.00,0.00,0.00,0.00,0.00,0.00,0.00,0.00,0.00,0.00,0.00,0.00,0.00,0.00,0.00,0.00,0.00,0.00,0.00,0.00,0.00,0.00,0.00,0.00,0.00,0.00,0.00,0.00,0.00,0.00,0.00,0.00,0.00,0.00,0.00,0.00,0.00,0.00,0.00,0.00,0.00,0.00,0.00,0.00,0.00,0.00,0.00,0.00,0.00,0.00,0.00,0.00,0.00,0.00,0.00,0.00,0.00,0.00,0.00,0.00,0.00,0.00,0.00,0.00,0.00,0.00,0.00,0.00,0.00,0.00,0.00,0.00,0.00,0.00,0.00,0.00,0.00,0.00,0.00,0.00,0.00,0.00,0.00,0.00,0.00,0.00,0.00,0.00,0.00,0.00,0.00,0.00,0.00,0.00,0.00,0.00,0.00,0.00,0.00,0.00,0.00,0.00,0.00,0.00,0.00,0.00,0.00,0.00,0.00,0.00,0.00,0.00,0.00,0.00,0.00,0.00,0.00,0.00,0.00,0.00,0.00,0.00,0.00,0.00,0.00,0.00,0.00,0.00,0.00,0.00,0.00,0.00,0.00
0.00,0.00,0.00,0.00,0.00,0.00,0.00,0.00,0.00,0.00,0.00,0.00,0.00,0.00,1587.07,1616.39,1629.83,1631.57,1633.45,1634.78,1633.77,1634.89,1637.67,1643.01,1647.08,1650.65,1653.57,1654.63,1655.59,1658.03,1658.93,1659.17,1657.99,1657.09,1657.62,1657.19,1656.50,1657.72,1660.75,1662.87,1664.43,1663.87,1663.00,1658.66,1655.99,1652.77,1649.89,1642.96,1631.53,0.00,0.00,0.00,0.00,0.00,0.00,0.00,0.00,0.00,0.00,0.00,0.00,0.00,0.00,0.00,0.00,0.00,0.00,0.00,0.00,0.00,0.00,0.00,0.00,0.00,0.00,0.00,0.00,0.00,0.00,0.00,0.00,0.00,0.00,0.00,0.00,0.00,0.00,0.00,0.00,0.00,1660.71,1669.48,1674.18,1676.01,1675.84,1676.09,1676.73,1679.33,1682.20,1683.29,1681.96,1677.34,0.00,0.00,0.00,0.00,1665.24,1666.43,1671.58,1671.74,1672.33,1676.78,1686.10,1689.82,1691.96,1690.92,1691.72,1694.38,1698.09,1698.93,1698.29,1697.68,1697.99,1698.79,1698.54,1698.56,1697.07,1698.38,1698.68,1700.48,1701.22,1702.01,1703.21,1702.16,1703.67,1703.61,1704.94,1704.61,1705.35,1706.39,1706.89,1707.01,1707.84,1708.10,1708.92,1707.82,1708.02,1708.13,1708.87,1709.32,1710.53,1712.63,1713.04,1712.72,1714.11,1717.00,1717.92,1716.01,1714.58,1715.94,1717.28,1719.79,1719.98,1720.17,1718.81,1719.66,1721.67,1722.64,1722.20,1722.94,1723.54,1723.73,1720.69,1720.37,1722.15,1724.59,1725.45,1726.54,1727.78,1728.74,1729.48,1729.60,1729.42,1728.16,1728.69,1728.73,1730.78,1730.01,1730.23,1728.37,1730.05,1731.03,1733.81,1734.25,1734.75,1734.45,1735.70,1737.76,1738.18,1738.36,1737.62,1738.28,1738.14,1738.27,1737.62,1737.04,1738.41,1739.60,1740.46,1741.14,1742.10,1743.15,1744.00,1743.37,1743.39,1742.75,1744.50,1744.93,1744.96,1743.81,1742.88,1743.54,1744.94,1746.41,1746.69,1748.56,1750.13,1751.22,1749.84,1749.29,1749.81,1751.17,1750.92,1751.27,1751.95,1753.99,1753.35,1754.16,1753.39,1753.30,1752.92,1752.67,1752.69,1752.18,1753.84,1757.91,1762.08,1763.29,1759.42,1759.20,0.00,0.00,0.00,0.00,0.00,0.00,0.00,0.00,0.00,0.00,700.86,705.72,704.44,698.75,693.11,686.57,683.32,678.33,677.00,672.15,669.70,665.77,663.15,661.10,657.65,655.58,653.95,655.24,655.00,654.37,652.00,651.82,653.10,651.88,652.61,651.40,653.99,652.66,653.52,653.00,653.14,652.74,652.92,653.54,653.39,654.36,655.68,657.26,657.89,657.39,657.68,658.84,660.52,662.27,663.08,664.08,664.79,665.61,666.58,667.48,668.10,668.33,667.95,670.02,672.34,675.14,675.82,675.44,676.00,676.32,677.75,678.45,681.26,685.44,689.21,691.13,693.67,699.25,709.05,715.33,719.07,719.91,719.08,715.28,708.29,702.38,690.89,0.00,0.00,0.00,0.00,0.00,0.00,0.00,0.00,0.00,0.00,0.00,0.00,0.00,0.00,0.00,0.00,0.00,0.00,0.00,0.00,0.00,0.00,0.00,0.00,0.00,0.00,0.00,0.00,0.00,0.00,0.00,0.00,0.00,0.00,0.00,0.00,0.00,0.00,0.00,0.00,0.00,0.00,0.00,0.00,0.00,0.00,0.00,0.00,0.00,0.00,0.00,0.00,0.00,0.00,0.00,0.00,0.00,0.00,0.00,0.00,0.00,0.00,0.00,0.00,0.00,0.00,0.00,0.00,0.00,0.00,0.00,0.00,0.00,0.00,0.00,0.00,0.00,0.00,0.00,0.00,0.00,0.00,0.00,0.00,0.00,0.00,0.00,0.00,0.00,0.00,0.00,0.00,0.00,0.00,0.00,0.00,0.00,0.00,0.00,0.00,0.00,0.00,0.00,0.00,0.00,0.00,0.00,0.00,0.00,0.00,0.00,0.00,0.00,0.00,0.00,0.00,0.00,0.00,0.00,0.00,0.00,0.00,0.00,0.00,0.00,0.00,0.00,0.00,0.00,0.00,0.00,0.00,0.00,0.00,0.00,0.00,0.00,0.00,0.00,0.00,0.00,0.00,0.00,0.00,0.00,0.00,0.00,0.00,0.00,0.00,0.00,0.00,0.00,0.00,0.00,0.00,0.00,0.00
0.00,0.00,0.00,0.00,0.00,0.00,0.00,0.00,0.00,0.00,0.00,0.00,0.00,0.00,1579.57,1610.84,1623.18,1626.82,1627.50,1633.59,1634.45,1636.49,1637.63,1643.09,1648.28,1651.24,1653.35,1653.10,1653.46,1655.74,1655.49,1656.09,1654.22,1654.81,1656.13,1656.35,1656.12,1656.86,1659.10,1661.81,1663.73,1663.85,1662.32,1659.08,1659.65,1660.18,1660.31,1656.59,1651.51,1644.16,1633.70,0.00,0.00,0.00,0.00,0.00,0.00,0.00,0.00,0.00,0.00,0.00,0.00,0.00,0.00,0.00,0.00,0.00,0.00,0.00,0.00,0.00,0.00,0.00,0.00,0.00,0.00,0.00,0.00,0.00,0.00,0.00,0.00,0.00,0.00,0.00,0.00,0.00,0.00,0.00,0.00,0.00,1659.40,1666.02,1667.45,1669.12,1670.68,1675.21,1674.34,1674.27,1668.57,0.00,0.00,0.00,1668.57,1675.51,1678.32,1678.91,1679.58,1677.72,1674.23,1660.96,1680.99,1687.61,1691.64,1690.88,1691.69,1695.08,1699.16,1699.36,1698.17,1698.13,1698.78,1699.19,1698.34,1699.58,1698.38,1699.88,1699.76,1701.61,1702.32,1702.62,1703.29,1703.37,1704.29,1704.22,1704.60,1704.78,1705.56,1706.74,1707.09,1707.33,1707.70,1708.43,1709.64,1709.48,1709.46,1708.86,1708.79,1709.72,1711.47,1714.02,1713.94,1713.88,1714.84,1717.34,1717.93,1716.17,1714.94,1714.78,1713.01,1714.64,1715.59,1719.04,1717.99,1720.01,1721.37,1722.49,1721.84,1723.35,1723.84,1724.41,1721.68,1722.51,1724.25,1725.67,1725.19,1725.46,1727.18,1728.74,1728.73,1729.40,1729.17,1728.92,1729.88,1730.70,1733.01,1732.49,1732.01,1730.35,1731.41,1733.00,1734.63,1735.21,1734.79,1734.64,1735.64,1737.53,1738.77,1739.36,1739.24,1740.34,1739.92,1740.78,1739.21,1739.80,1740.30,1742.13,1743.25,1743.71,1744.13,1743.96,1744.42,1744.40,1744.69,1743.61,1743.66,1744.17,1744.67,1744.41,1743.33,1745.10,1746.88,1748.79,1747.91,1748.27,1749.62,1751.53,1750.90,1749.71,1750.46,1752.60,1753.05,1753.60,1753.91,1755.53,1754.00,1754.20,1753.06,1752.69,1752.73,1753.74,1754.88,1753.99,1754.36,1757.30,1761.82,1764.73,1761.65,1764.26,0.00,0.00,0.00,0.00,0.00,0.00,0.00,0.00,0.00,0.00,696.37,702.73,703.53,698.87,692.51,685.05,680.50,677.69,675.74,671.62,667.69,664.89,661.22,659.10,655.22,653.69,652.18,653.26,651.95,651.68,650.73,651.50,651.92,651.24,652.15,651.31,652.98,651.88,651.74,651.68,651.19,652.25,651.51,651.42,650.74,651.46,652.71,654.13,655.42,655.69,656.14,657.56,659.39,660.57,661.63,662.59,663.44,663.79,665.17,666.49,667.74,668.09,667.57,669.49,671.17,674.12,673.73,673.02,672.81,674.59,676.36,676.98,677.83,682.17,686.83,690.27,693.17,699.22,708.33,714.92,717.37,718.90,717.51,714.87,706.42,696.28,0.00,0.00,0.00,0.00,0.00,0.00,0.00,0.00,0.00,0.00,0.00,0.00,0.00,0.00,0.00,0.00,0.00,0.00,0.00,0.00,0.00,0.00,0.00,0.00,0.00,0.00,0.00,0.00,0.00,0.00,0.00,0.00,0.00,0.00,0.00,0.00,0.00,0.00,0.00,0.00,0.00,0.00,0.00,0.00,0.00,0.00,0.00,0.00,0.00,0.00,0.00,0.00,0.00,0.00,0.00,0.00,0.00,0.00,0.00,0.00,0.00,0.00,0.00,0.00,0.00,0.00,0.00,0.00,0.00,0.00,0.00,0.00,0.00,0.00,0.00,0.00,0.00,0.00,0.00,0.00,0.00,0.00,0.00,0.00,0.00,0.00,0.00,0.00,0.00,0.00,0.00,0.00,0.00,0.00,0.00,0.00,0.00,0.00,0.00,0.00,0.00,0.00,0.00,0.00,0.00,0.00,0.00,0.00,0.00,0.00,0.00,0.00,0.00,0.00,0.00,0.00,0.00,0.00,0.00,0.00,0.00,0.00,0.00,0.00,0.00,0.00,0.00,0.00,0.00,0.00,0.00,0.00,0.00,0.00,0.00,0.00,0.00,0.00,0.00,0.00,0.00,0.00,0.00,0.00,0.00,0.00,0.00,0.00,0.00,0.00,0.00,0.00,0.00,0.00,0.00,0.00,0.00,0.00,0.00
0.00,0.00,0.00,0.00,0.00,0.00,0.00,0.00,0.00,0.00,0.00,0.00,0.00,0.00,0.00,1604.75,1623.17,1627.88,1629.48,1635.42,1638.55,1639.60,1639.39,1644.04,1650.06,1652.95,1654.95,1654.94,1657.64,1658.92,1659.70,1659.97,1660.02,1659.37,1659.50,1659.11,1660.70,1661.04,1662.82,1664.74,1667.44,1666.79,1665.59,1663.05,1665.44,1665.92,1667.43,1665.25,1663.42,1658.32,1652.85,1644.28,1633.41,0.00,0.00,0.00,0.00,0.00,0.00,0.00,0.00,0.00,0.00,0.00,0.00,0.00,0.00,0.00,0.00,0.00,0.00,0.00,0.00,0.00,0.00,0.00,0.00,0.00,0.00,0.00,0.00,0.00,0.00,0.00,0.00,0.00,0.00,0.00,0.00,0.00,0.00,0.00,0.00,1651.59,1659.62,1664.84,1666.83,1669.21,1666.18,1660.52,0.00,0.00,1640.19,1671.15,1676.20,1679.74,1681.47,1684.19,1686.54,1682.47,1678.94,1636.71,1675.04,1686.11,1691.68,1693.40,1696.03,1698.03,1699.59,1697.03,1697.12,1696.90,1699.48,1698.75,1699.27,1699.51,1700.41,1701.20,1701.99,1702.70,1703.74,1703.38,1704.17,1704.46,1705.69,1706.43,1707.52,1707.80,1708.61,1710.05,1710.86,1710.48,1710.28,1711.30,1713.89,1713.29,1714.06,1712.79,1713.19,1714.26,1715.34,1717.94,1717.34,1717.88,1718.49,1719.99,1720.40,1719.86,1719.89,1718.72,1716.29,1716.57,1718.87,1722.97,1722.79,1724.13,1724.98,1726.63,1726.42,1726.58,1727.18,1727.97,1728.02,1728.07,1728.27,1727.96,1728.53,1728.81,1731.38,1731.96,1732.81,1732.29,1732.56,1732.56,1733.79,1734.70,1737.22,1737.01,1737.08,1735.44,1736.78,1737.43,1738.58,1739.09,1739.57,1740.17,1740.67,1740.71,1742.16,1742.91,1743.89,1743.70,1743.25,1744.03,1743.27,1744.26,1743.73,1745.38,1746.58,1747.95,1747.32,1747.40,1747.36,1749.08,1749.20,1748.96,1747.88,1748.81,1750.86,1750.21,1748.40,1749.36,1751.48,1754.37,1751.95,1752.51,1752.92,1755.91,1756.09,1755.14,1755.99,1757.29,1758.39,1758.16,1758.00,1758.51,1758.09,1758.98,1758.81,1757.76,1758.37,1758.62,1760.47,1760.00,1760.12,1761.51,1764.03,1769.36,1771.04,1774.34,0.00,0.00,0.00,0.00,0.00,0.00,0.00,0.00,0.00,0.00,696.35,704.98,707.29,703.48,696.79,689.06,683.22,680.64,678.28,675.18,671.92,669.36,666.06,663.75,661.23,659.04,657.60,656.74,655.90,654.68,654.33,653.50,654.20,654.22,656.71,655.42,655.90,654.16,654.54,654.79,655.70,657.52,657.44,656.16,654.17,654.05,655.73,657.01,658.22,658.09,659.18,660.23,662.51,663.23,664.28,663.89,664.70,665.35,667.78,668.99,671.54,672.30,672.25,671.66,672.45,675.41,676.96,678.05,678.67,680.29,681.19,681.09,680.94,684.86,688.46,692.73,696.54,701.91,710.31,715.11,720.29,721.30,720.93,715.29,703.91,681.75,0.00,0.00,0.00,0.00,0.00,0.00,0.00,0.00,0.00,0.00,0.00,0.00,0.00,0.00,0.00,0.00,0.00,0.00,0.00,0.00,0.00,0.00,0.00,0.00,0.00,0.00,0.00,0.00,0.00,0.00,0.00,0.00,0.00,0.00,0.00,0.00,0.00,0.00,0.00,0.00,0.00,0.00,0.00,0.00,0.00,0.00,0.00,0.00,0.00,0.00,0.00,0.00,0.00,0.00,0.00,0.00,0.00,0.00,0.00,0.00,0.00,0.00,0.00,0.00,0.00,0.00,0.00,0.00,0.00,0.00,0.00,0.00,0.00,0.00,0.00,0.00,0.00,0.00,0.00,0.00,0.00,0.00,0.00,0.00,0.00,0.00,0.00,0.00,0.00,0.00,0.00,0.00,0.00,0.00,0.00,0.00,0.00,0.00,0.00,0.00,0.00,0.00,0.00,0.00,0.00,0.00,0.00,0.00,0.00,0.00,0.00,0.00,0.00,0.00,0.00,0.00,0.00,0.00,0.00,0.00,0.00,0.00,0.00,0.00,0.00,0.00,0.00,0.00,0.00,0.00,0.00,0.00,0.00,0.00,0.00,0.00,0.00,0.00,0.00,0.00,0.00,0.00,0.00,0.00,0.00,0.00,0.00,0.00,0.00,0.00,0.00,0.00,0.00,0.00,0.00,0.00,0.00,0.00,0.00
0.00,0.00,0.00,0.00,0.00,0.00,0.00,0.00,0.00,0.00,0.00,0.00,0.00,0.00,0.00,1599.81,1619.88,1628.56,1628.62,1634.41,1639.27,1640.83,1640.68,1641.93,1647.67,1649.21,1652.23,1653.73,1656.95,1657.72,1657.26,1657.83,1658.72,1659.31,1659.37,1658.53,1659.80,1660.90,1661.60,1663.82,1664.61,1665.12,1664.38,1664.09,1665.79,1665.43,1666.42,1665.47,1665.40,1664.02,1662.38,1658.70,1653.40,1646.71,1636.91,0.00,0.00,0.00,0.00,0.00,0.00,0.00,0.00,0.00,0.00,0.00,0.00,0.00,0.00,0.00,0.00,0.00,0.00,0.00,0.00,0.00,0.00,0.00,0.00,0.00,0.00,0.00,0.00,0.00,0.00,0.00,0.00,0.00,0.00,0.00,0.00,0.00,0.00,0.00,0.00,1655.50,1660.96,1663.80,1655.03,0.00,0.00,1643.50,1667.93,1674.61,1676.90,1679.99,1680.63,1685.06,1687.73,1683.17,1678.26,0.00,1665.22,1683.85,1688.70,1691.00,1692.14,1691.82,1691.80,1691.17,1692.60,1693.37,1694.58,1695.37,1695.03,1695.58,1695.90,1696.89,1697.81,1698.04,1699.19,1698.87,1699.69,1701.53,1703.67,1704.70,1704.74,1704.73,1705.26,1706.88,1707.16,1707.90,1706.94,1708.71,1710.82,1711.98,1712.92,1711.67,1711.85,1712.11,1713.06,1715.35,1715.41,1716.14,1715.53,1717.06,1718.14,1719.10,1719.54,1718.01,1715.93,1716.21,1718.44,1722.60,1722.88,1724.65,1724.35,1725.98,1725.72,1726.28,1726.98,1728.19,1729.35,1729.86,1730.07,1729.27,1729.57,1730.61,1733.01,1734.19,1733.72,1731.91,1731.10,1731.06,1733.69,1734.90,1737.13,1737.91,1738.85,1738.25,1738.04,1737.93,1738.87,1739.00,1740.50,1740.53,1740.56,1739.29,1741.08,1741.50,1742.62,1742.34,1743.28,1745.42,1745.37,1747.27,1745.59,1746.56,1746.11,1747.25,1747.04,1748.23,1748.28,1750.47,1751.37,1751.88,1749.74,1750.17,1751.00,1751.92,1750.33,1751.77,1752.73,1755.97,1754.84,1756.54,1756.85,1758.47,1757.38,1756.08,1756.63,1757.24,1758.63,1758.69,1758.92,1759.55,1760.79,1761.33,1760.30,1759.24,1759.90,1760.52,1761.97,1762.36,1762.79,1764.32,1766.45,1769.97,1769.92,1771.99,0.00,0.00,0.00,0.00,0.00,0.00,0.00,0.00,0.00,0.00,688.96,703.25,704.85,701.84,695.08,689.10,682.77,679.96,677.66,675.88,671.92,669.36,665.76,664.02,660.82,658.89,658.04,656.40,654.97,654.34,653.94,653.69,652.22,653.40,654.69,655.28,655.23,654.56,654.33,654.04,654.92,656.42,656.65,655.55,653.93,654.43,655.15,655.77,655.26,655.92,656.74,657.69,658.42,659.30,660.45,661.66,662.53,663.77,664.89,666.11,667.18,669.25,669.75,670.60,670.80,673.35,674.30,675.29,676.36,678.45,678.95,679.85,680.10,683.15,685.20,689.49,694.77,701.03,707.91,712.36,717.74,719.74,719.00,710.85,690.62,0.00,0.00,0.00,0.00,0.00,0.00,0.00,0.00,0.00,0.00,0.00,0.00,0.00,0.00,0.00,0.00,0.00,0.00,0.00,0.00,0.00,0.00,0.00,0.00,0.00,0.00,0.00,0.00,0.00,0.00,0.00,0.00,0.00,0.00,0.00,0.00,0.00,0.00,0.00,0.00,0.00,0.00,0.00,0.00,0.00,0.00,0.00,0.00,0.00,0.00,0.00,0.00,0.00,0.00,0.00,0.00,0.00,0.00,0.00,0.00,0.00,0.00,0.00,0.00,0.00,0.00,0.00,0.00,0.00,0.00,0.00,0.00,0.00,0.00,0.00,0.00,0.00,0.00,0.00,0.00,0.00,0.00,0.00,0.00,0.00,0.00,0.00,0.00,0.00,0.00,0.00,0.00,0.00,0.00,0.00,0.00,0.00,0.00,0.00,0.00,0.00,0.00,0.00,0.00,0.00,0.00,0.00,0.00,0.00,0.00,0.00,0.00,0.00,0.00,0.00,0.00,0.00,0.00,0.00,0.00,0.00,0.00,0.00,0.00,0.00,0.00,0.00,0.00,0.00,0.00,0.00,0.00,0.00,0.00,0.00,0.00,0.00,0.00,0.00,0.00,0.00,0.00,0.00,0.00,0.00,0.00,0.00,0.00,0.00,0.00,0.00,0.00,0.00,0.00,0.00,0.00,0.00,0.00,0.00,0.00
0.00,0.00,0.00,0.00,0.00,0.00,0.00,0.00,0.00,0.00,0.00,0.00,0.00,0.00,0.00,1591.46,1621.10,1632.86,1634.70,1637.96,1642.08,1642.46,1643.58,1643.75,1648.13,1647.49,1651.35,1654.05,1658.49,1657.69,1659.15,1660.43,1662.72,1661.29,1660.52,1660.09,1663.20,1664.34,1665.44,1665.91,1666.59,1665.91,1664.89,1664.42,1665.37,1665.52,1666.61,1666.95,1668.12,1667.69,1667.67,1665.46,1662.94,1659.68,1655.58,1647.36,1634.72,0.00,0.00,0.00,0.00,0.00,0.00,0.00,0.00,0.00,0.00,0.00,0.00,0.00,0.00,0.00,0.00,0.00,0.00,0.00,0.00,0.00,0.00,0.00,0.00,0.00,0.00,0.00,0.00,0.00,0.00,0.00,0.00,0.00,0.00,0.00,0.00,0.00,0.00,0.00,0.00,1650.29,0.00,0.00,0.00,1666.56,1674.49,1679.83,1681.72,1682.94,1682.84,1687.28,1690.36,1685.24,1679.72,0.00,1671.31,1684.95,1689.46,1691.79,1693.33,1692.80,1692.68,1692.00,1693.60,1693.71,1694.42,1694.73,1695.00,1695.01,1696.85,1697.07,1699.18,1698.67,1699.61,1699.10,1699.90,1701.39,1703.36,1704.16,1705.18,1705.08,1706.42,1706.97,1707.72,1708.35,1707.87,1707.75,1709.66,1712.18,1713.11,1712.45,1712.28,1713.15,1714.83,1716.35,1717.19,1716.59,1716.49,1717.48,1718.65,1719.17,1720.12,1720.06,1721.25,1721.29,1722.77,1723.95,1725.63,1726.99,1726.73,1727.47,1728.19,1728.88,1729.51,1729.71,1732.02,1732.47,1732.04,1731.01,1731.82,1732.64,1735.31,1736.48,1735.43,1732.50,1732.44,1734.37,1737.46,1738.59,1739.28,1741.17,1742.42,1741.69,1741.24,1741.03,1743.21,1742.89,1744.58,1745.57,1746.23,1745.59,1746.42,1747.43,1749.12,1750.40,1749.13,1748.14,1747.47,1749.59,1750.06,1750.20,1751.00,1751.75,1750.84,1751.24,1752.45,1756.66,1756.99,1756.02,1753.50,1753.96,1755.20,1755.72,1756.32,1757.43,1758.92,1761.29,1761.28,1762.30,1763.13,1763.28,1762.61,1761.70,1761.92,1762.58,1763.07,1764.16,1764.30,1766.03,1768.11,1769.03,1766.64,1765.20,1765.54,1767.82,1768.10,1768.52,1768.87,1772.12,1774.63,1777.57,1777.90,1777.71,1779.46,0.00,0.00,0.00,0.00,0.00,0.00,0.00,0.00,504.86,675.03,704.88,707.60,706.00,699.59,692.05,686.24,682.74,681.82,680.22,678.11,674.60,672.23,669.98,667.57,663.40,661.78,659.66,658.34,657.17,656.00,655.83,654.88,656.71,657.03,656.57,656.43,657.52,659.11,658.17,659.81,660.84,661.95,660.33,659.11,658.59,657.96,657.44,656.55,657.32,658.54,659.45,660.42,661.00,662.80,663.66,665.20,666.50,667.69,668.62,669.12,671.00,671.69,672.93,673.50,675.17,676.50,677.78,680.32,681.74,682.76,683.44,685.52,688.14,690.61,693.10,698.53,704.22,711.56,715.58,720.37,722.56,720.90,708.02,669.53,592.51,535.34,512.05,0.00,0.00,0.00,0.00,0.00,0.00,0.00,0.00,0.00,0.00,0.00,0.00,0.00,0.00,0.00,0.00,0.00,0.00,0.00,0.00,0.00,0.00,0.00,0.00,0.00,0.00,0.00,0.00,0.00,0.00,0.00,0.00,0.00,0.00,0.00,0.00,0.00,0.00,0.00,0.00,0.00,0.00,0.00,0.00,0.00,0.00,0.00,0.00,0.00,0.00,0.00,0.00,0.00,0.00,0.00,0.00,0.00,0.00,0.00,0.00,0.00,0.00,0.00,0.00,0.00,0.00,0.00,0.00,0.00,0.00,0.00,0.00,0.00,0.00,0.00,0.00,0.00,0.00,0.00,0.00,0.00,0.00,0.00,0.00,0.00,0.00,0.00,0.00,0.00,0.00,0.00,0.00,0.00,0.00,0.00,0.00,0.00,0.00,0.00,0.00,0.00,0.00,0.00,0.00,0.00,0.00,0.00,0.00,0.00,0.00,0.00,0.00,0.00,0.00,0.00,0.00,0.00,0.00,0.00,0.00,0.00,0.00,0.00,0.00,0.00,0.00,0.00,0.00,0.00,0.00,0.00,0.00,0.00,0.00,0.00,0.00,0.00,0.00,0.00,0.00,0.00,0.00,0.00,0.00,0.00,0.00,0.00,0.00,0.00,0.00,0.00,0.00,0.00,0.00,0.00,0.00,0.00
0.00,0.00,0.00,0.00,0.00,0.00,0.00,0.00,0.00,0.00,0.00,0.00,0.00,0.00,0.00,1579.18,1613.49,1628.95,1631.77,1635.06,1640.23,1641.75,1643.52,1643.24,1646.16,1646.35,1648.63,1651.82,1654.21,1654.83,1656.34,1659.28,1661.97,1662.17,1661.88,1660.84,1662.03,1663.69,1664.15,1664.88,1664.46,1665.33,1663.79,1664.36,1663.06,1663.22,1662.56,1664.60,1665.24,1666.22,1666.19,1666.66,1664.54,1663.45,1662.20,1661.11,1655.16,1646.78,1636.44,0.00,0.00,0.00,0.00,0.00,0.00,0.00,0.00,0.00,0.00,0.00,0.00,0.00,0.00,0.00,0.00,0.00,0.00,0.00,0.00,0.00,0.00,0.00,0.00,0.00,0.00,0.00,0.00,0.00,0.00,0.00,0.00,0.00,0.00,0.00,0.00,0.00,0.00,0.00,0.00,0.00,1660.29,1669.51,1674.76,1678.43,1680.01,1681.09,1681.25,1685.30,1687.84,1683.12,1678.01,0.00,1673.37,1683.95,1687.62,1689.52,1690.31,1691.07,1691.34,1692.15,1692.72,1693.60,1693.61,1694.23,1693.91,1694.50,1696.31,1696.71,1698.57,1699.01,1700.22,1699.47,1699.64,1700.29,1702.17,1702.66,1702.49,1702.09,1703.86,1705.37,1706.67,1706.85,1705.97,1705.27,1706.17,1709.55,1709.07,1709.73,1710.13,1711.41,1712.68,1712.84,1714.58,1714.09,1713.82,1714.35,1714.97,1715.52,1716.87,1716.77,1718.42,1718.52,1718.99,1719.90,1721.72,1723.71,1723.15,1723.09,1724.08,1726.43,1727.37,1727.83,1728.12,1728.32,1729.21,1729.33,1730.78,1731.01,1733.75,1733.45,1732.81,1731.46,1732.21,1734.22,1735.39,1736.61,1737.36,1738.98,1740.11,1740.02,1740.19,1740.82,1742.35,1743.28,1739.38,1737.78,1738.36,1742.62,1742.63,1741.70,1742.21,1740.40,1741.84,1742.25,1748.86,1749.74,1749.00,1749.31,1750.11,1752.01,1750.96,1751.24,1754.73,1743.87,1744.75,1743.12,1755.73,1755.06,1755.98,1757.04,1758.31,1759.24,1761.20,1761.86,1759.04,1759.77,1761.08,1765.23,1763.64,1762.87,1762.63,1763.42,1763.54,1765.41,1765.91,1768.00,1768.68,1769.25,1766.42,1765.48,1766.49,1769.41,1769.96,1768.93,1768.99,1771.80,1774.63,1776.80,1776.52,1774.92,1777.19,0.00,0.00,0.00,0.00,0.00,0.00,0.00,0.00,0.00,0.00,700.36,705.22,705.16,698.61,690.10,685.35,682.68,682.86,681.54,680.21,676.53,672.92,669.91,666.88,662.93,660.15,657.97,656.04,655.29,653.98,654.89,654.21,655.87,653.63,653.38,652.29,655.82,656.18,656.27,657.25,658.26,658.71,657.68,659.52,659.56,658.14,655.72,654.31,655.18,656.14,657.45,658.06,659.48,661.57,663.13,664.42,665.37,665.95,666.43,666.63,668.44,669.96,672.36,673.62,674.83,675.21,675.78,678.23,679.84,681.62,681.56,684.31,686.73,691.03,693.73,699.79,707.08,713.61,717.64,719.92,721.15,716.34,697.39,621.21,574.26,561.14,516.37,0.00,0.00,0.00,0.00,0.00,0.00,0.00,0.00,0.00,0.00,0.00,0.00,0.00,0.00,0.00,0.00,0.00,0.00,0.00,0.00,0.00,0.00,0.00,0.00,0.00,0.00,0.00,0.00,0.00,0.00,0.00,0.00,0.00,0.00,0.00,0.00,0.00,0.00,0.00,0.00,0.00,0.00,0.00,0.00,0.00,0.00,0.00,0.00,0.00,0.00,0.00,0.00,0.00,0.00,0.00,0.00,0.00,0.00,0.00,0.00,0.00,0.00,0.00,0.00,0.00,0.00,0.00,0.00,0.00,0.00,0.00,0.00,0.00,0.00,0.00,0.00,0.00,0.00,0.00,0.00,0.00,0.00,0.00,0.00,0.00,0.00,0.00,0.00,0.00,0.00,0.00,0.00,0.00,0.00,0.00,0.00,0.00,0.00,0.00,0.00,0.00,0.00,0.00,0.00,0.00,0.00,0.00,0.00,0.00,0.00,0.00,0.00,0.00,0.00,0.00,0.00,0.00,0.00,0.00,0.00,0.00,0.00,0.00,0.00,0.00,0.00,0.00,0.00,0.00,0.00,0.00,0.00,0.00,0.00,0.00,0.00,0.00,0.00,0.00,0.00,0.00,0.00,0.00,0.00,0.00,0.00,0.00,0.00,0.00,0.00,0.00,0.00,0.00,0.00,0.00,0.00,0.00
0.00,0.00,0.00,0.00,0.00,0.00,0.00,0.00,0.00,0.00,0.00,0.00,0.00,0.00,0.00,0.00,1608.53,1626.50,1631.38,1633.86,1640.04,1641.81,1644.10,1643.51,1647.70,1648.25,1651.17,1652.76,1654.78,1655.28,1658.43,1662.05,1664.74,1664.40,1663.89,1662.92,1664.50,1665.10,1666.44,1666.50,1666.80,1666.52,1665.16,1666.60,1665.44,1666.45,1665.84,1667.95,1667.29,1666.82,1667.02,1668.49,1668.06,1667.14,1667.32,1666.65,1665.02,1659.52,1654.13,1645.68,1631.72,0.00,0.00,0.00,0.00,0.00,0.00,0.00,0.00,0.00,0.00,0.00,0.00,0.00,0.00,0.00,0.00,0.00,0.00,0.00,0.00,0.00,0.00,0.00,0.00,0.00,0.00,0.00,0.00,0.00,0.00,0.00,0.00,0.00,0.00,0.00,0.00,0.00,0.00,1651.02,1665.48,1672.78,1676.67,1679.40,1680.89,1681.71,1682.48,1686.13,1687.47,1681.13,1674.49,0.00,1677.91,1684.49,1688.81,1690.75,1691.96,1693.09,1694.43,1694.83,1694.82,1695.24,1695.57,1695.45,1694.91,1694.74,1696.62,1698.39,1701.04,1702.00,1702.37,1701.80,1702.22,1701.24,1702.21,1701.94,1703.75,1703.85,1705.49,1705.79,1707.96,1708.15,1708.62,1707.45,1709.35,1711.81,1711.90,1712.67,1713.17,1714.38,1714.66,1714.40,1715.95,1715.89,1716.38,1715.96,1716.39,1715.96,1717.10,1716.97,1718.81,1719.36,1719.95,1720.14,1722.00,1723.24,1723.10,1722.23,1724.27,1725.89,1727.32,1727.39,1728.35,1728.95,1729.16,1729.12,1729.94,1730.77,1733.48,1732.60,1732.28,1733.17,1735.15,1737.02,1735.18,1735.94,1736.69,1738.27,1738.83,1738.86,1740.12,1741.51,1743.36,1745.07,1741.37,1739.73,1740.60,1745.87,1745.60,1744.93,1745.52,1744.32,1745.15,1745.93,1751.24,1751.31,1750.25,1751.12,1753.25,1755.42,1754.17,1753.36,1757.97,1747.30,1747.69,1746.59,1759.91,1758.57,1760.83,1761.49,1762.29,1762.30,1763.58,1764.38,1760.53,1761.99,1763.51,1769.52,1768.23,1767.50,1768.30,1768.75,1769.55,1770.72,1771.36,1772.78,1772.76,1773.04,1771.76,1770.71,1772.10,1773.25,1773.21,1772.25,1772.71,1775.09,1776.32,1777.87,1779.73,1779.64,1782.20,0.00,0.00,0.00,0.00,0.00,0.00,0.00,0.00,0.00,0.00,698.53,706.20,708.05,703.01,694.89,690.48,687.97,687.03,685.66,684.64,681.22,675.96,670.76,667.90,664.57,661.40,659.96,659.28,659.14,657.40,655.70,655.13,655.51,654.31,652.41,651.82,654.75,655.85,656.56,657.75,659.51,660.08,659.43,662.03,661.88,662.26,659.15,658.38,657.94,660.39,662.39,662.81,661.75,663.40,664.99,668.36,668.91,670.10,670.32,672.22,673.89,675.61,676.64,677.90,677.72,678.15,678.97,681.26,682.77,684.98,685.00,686.54,689.01,694.85,699.92,706.35,713.49,719.37,721.97,723.09,721.55,715.57,682.59,600.73,570.95,543.64,0.00,0.00,516.08,0.00,0.00,0.00,0.00,0.00,0.00,0.00,0.00,0.00,0.00,0.00,0.00,0.00,0.00,0.00,0.00,0.00,0.00,0.00,0.00,0.00,0.00,0.00,0.00,0.00,0.00,0.00,0.00,0.00,0.00,0.00,0.00,0.00,0.00,0.00,0.00,0.00,0.00,0.00,0.00,0.00,0.00,0.00,0.00,0.00,0.00,0.00,0.00,0.00,0.00,0.00,0.00,0.00,0.00,0.00,0.00,0.00,0.00,0.00,0.00,0.00,0.00,0.00,0.00,0.00,0.00,0.00,0.00,0.00,0.00,0.00,0.00,0.00,0.00,0.00,0.00,0.00,0.00,0.00,0.00,0.00,0.00,0.00,0.00,0.00,0.00,0.00,0.00,0.00,0.00,0.00,0.00,0.00,0.00,0.00,0.00,0.00,0.00,0.00,0.00,0.00,0.00,0.00,0.00,0.00,0.00,0.00,0.00,0.00,0.00,0.00,0.00,0.00,0.00,0.00,0.00,0.00,0.00,0.00,0.00,0.00,0.00,0.00,0.00,0.00,0.00,0.00,0.00,0.00,0.00,0.00,0.00,0.00,0.00,0.00,0.00,0.00,0.00,0.00,0.00,0.00,0.00,0.00,0.00,0.00,0.00,0.00,0.00,0.00,0.00,0.00,0.00,0.00,0.00,0.00
0.00,0.00,0.00,0.00,0.00,0.00,0.00,0.00,0.00,0.00,0.00,0.00,0.00,0.00,0.00,0.00,1601.94,1620.34,1627.18,1629.37,1636.44,1638.29,1639.88,1640.46,1646.15,1648.28,1650.73,1651.21,1651.62,1652.56,1655.01,1659.23,1662.28,1663.85,1664.12,1663.03,1663.61,1663.14,1663.90,1665.30,1666.01,1666.31,1664.49,1665.08,1664.22,1665.27,1665.02,1665.81,1663.81,1663.95,1664.60,1667.42,1667.02,1666.53,1664.85,1664.33,1663.37,1660.99,1659.39,1656.17,1653.35,1645.81,0.00,0.00,0.00,0.00,0.00,0.00,0.00,0.00,0.00,0.00,0.00,0.00,0.00,0.00,0.00,0.00,0.00,0.00,0.00,0.00,0.00,0.00,0.00,0.00,0.00,0.00,0.00,0.00,0.00,0.00,0.00,0.00,0.00,0.00,0.00,0.00,0.00,0.00,1658.79,1668.72,1672.15,1675.62,1676.77,1678.65,1679.42,1682.89,1683.51,1677.09,1664.17,0.00,1676.85,1682.86,1687.23,1688.62,1688.81,1689.30,1690.19,1691.17,1691.79,1692.77,1693.46,1693.80,1693.38,1692.65,1693.09,1696.20,1698.11,1699.81,1699.62,1699.80,1700.03,1699.89,1701.31,1701.98,1703.14,1703.16,1704.37,1705.34,1706.61,1705.94,1706.05,1706.69,1708.25,1709.05,1709.27,1710.24,1712.18,1712.48,1712.31,1711.47,1713.19,1715.03,1715.63,1715.99,1716.19,1716.49,1716.58,1716.40,1717.82,1719.41,1720.36,1721.06,1721.95,1722.79,1722.31,1721.85,1723.43,1724.90,1725.86,1726.06,1726.61,1727.84,1728.65,1728.87,1729.02,1730.01,1731.72,1730.37,1730.25,1731.48,1732.97,1732.72,1731.60,1733.15,1735.00,1735.66,1735.81,1735.90,1737.57,1738.71,1740.42,1742.55,1739.35,1737.03,1737.32,1741.47,1741.94,1741.33,1742.14,1741.58,1743.69,1745.04,1750.67,1749.52,1747.12,1748.66,1749.87,1752.48,1752.66,1752.54,1756.29,1745.41,1747.10,1745.76,1758.14,1757.30,1759.65,1760.59,1759.75,1759.28,1759.98,1762.62,1759.84,1761.83,1762.06,1767.62,1765.96,1765.88,1767.87,1768.91,1770.42,1770.53,1771.17,1772.00,1770.66,1771.06,1771.50,1771.65,1772.27,1771.92,1772.52,1773.87,1774.88,1775.88,1776.33,1775.10,1778.08,1779.16,1784.65,0.00,0.00,0.00,0.00,0.00,0.00,0.00,0.00,0.00,0.00,692.42,703.26,706.15,700.72,693.90,688.46,686.82,685.48,684.31,681.96,677.89,670.61,663.81,658.83,658.22,656.78,656.34,654.72,654.13,651.34,649.11,648.46,650.08,650.03,650.01,649.40,650.79,651.50,653.14,654.42,654.35,654.81,654.36,657.58,658.48,660.56,658.25,657.27,656.83,659.11,661.15,660.85,659.69,660.67,662.85,664.96,665.76,666.89,668.96,671.38,672.55,673.98,674.53,676.91,677.45,678.10,678.01,678.71,680.58,683.30,684.71,685.75,688.54,694.10,701.79,708.37,713.97,717.53,720.46,722.94,721.44,714.04,675.02,611.76,564.06,546.62,525.08,523.98,510.97,0.00,0.00,0.00,0.00,0.00,0.00,0.00,0.00,0.00,0.00,0.00,0.00,0.00,0.00,0.00,0.00,0.00,0.00,0.00,0.00,0.00,0.00,0.00,0.00,0.00,0.00,0.00,0.00,0.00,0.00,0.00,0.00,0.00,0.00,0.00,0.00,0.00,0.00,0.00,0.00,0.00,0.00,0.00,0.00,0.00,0.00,0.00,0.00,0.00,0.00,0.00,0.00,0.00,0.00,0.00,0.00,0.00,0.00,0.00,0.00,0.00,0.00,0.00,0.00,0.00,0.00,0.00,0.00,0.00,0.00,0.00,0.00,0.00,0.00,0.00,0.00,0.00,0.00,0.00,0.00,0.00,0.00,0.00,0.00,0.00,0.00,0.00,0.00,0.00,0.00,0.00,0.00,0.00,0.00,0.00,0.00,0.00,0.00,0.00,0.00,0.00,0.00,0.00,0.00,0.00,0.00,0.00,0.00,0.00,0.00,0.00,0.00,0.00,0.00,0.00,0.00,0.00,0.00,0.00,0.00,0.00,0.00,0.00,0.00,0.00,0.00,0.00,0.00,0.00,0.00,0.00,0.00,0.00,0.00,0.00,0.00,0.00,0.00,0.00,0.00,0.00,0.00,0.00,0.00,0.00,0.00,0.00,0.00,0.00,0.00,0.00,0.00,0.00,0.00,0.00
0.00,0.00,0.00,0.00,0.00,0.00,0.00,0.00,0.00,0.00,0.00,0.00,0.00,0.00,0.00,0.00,1593.82,1615.94,1625.62,1627.79,1635.99,1636.69,1639.85,1641.26,1646.72,1648.40,1652.68,1653.57,1653.76,1653.89,1656.27,1659.32,1661.46,1663.51,1665.25,1665.12,1666.54,1665.33,1666.21,1665.41,1666.11,1665.79,1665.95,1665.68,1665.48,1666.42,1667.70,1667.76,1666.72,1667.39,1668.37,1669.89,1668.62,1667.15,1665.60,1663.13,1662.96,1661.92,1663.21,1662.48,1662.75,1659.87,1654.51,1642.99,0.00,0.00,0.00,0.00,0.00,0.00,0.00,0.00,0.00,0.00,0.00,0.00,0.00,0.00,0.00,0.00,0.00,0.00,0.00,0.00,0.00,0.00,0.00,0.00,0.00,0.00,0.00,0.00,0.00,0.00,0.00,0.00,0.00,0.00,0.00,0.00,0.00,1656.25,1665.35,1672.31,1674.10,1676.37,1677.96,1682.81,1682.21,1676.08,0.00,1647.39,1677.58,1683.04,1687.44,1688.69,1690.00,1689.77,1691.65,1692.46,1694.18,1694.11,1694.62,1694.51,1694.93,1694.18,1694.94,1697.02,1698.90,1699.93,1700.28,1701.16,1701.83,1701.72,1701.85,1702.36,1703.73,1704.64,1706.22,1706.73,1707.39,1706.50,1707.36,1708.33,1709.89,1710.42,1711.62,1712.15,1713.18,1713.13,1712.95,1712.60,1713.73,1715.29,1716.08,1717.34,1718.49,1718.98,1717.60,1717.77,1718.76,1720.92,1722.03,1722.80,1723.46,1723.32,1723.74,1723.71,1726.20,1726.65,1726.94,1726.86,1728.09,1730.20,1731.04,1731.42,1730.72,1732.07,1733.37,1732.74,1731.61,1731.99,1733.45,1733.74,1733.88,1735.76,1736.92,1737.07,1736.72,1737.13,1737.92,1738.71,1740.90,1742.36,1743.47,1743.37,1745.10,1745.73,1746.20,1746.27,1747.74,1750.90,1751.49,1751.03,1748.81,1749.07,1749.26,1750.99,1752.54,1753.85,1754.19,1753.61,1755.27,1756.90,1758.98,1757.33,1756.28,1756.19,1758.09,1759.07,1758.51,1759.59,1758.73,1763.70,1764.86,1767.86,1765.68,1765.87,1765.40,1766.40,1768.98,1770.37,1772.31,1772.40,1772.07,1772.22,1772.09,1773.91,1774.96,1774.82,1774.04,1772.81,1772.69,1775.29,1777.88,1779.92,1779.10,1776.65,1779.78,1785.59,1791.67,0.00,0.00,0.00,0.00,0.00,0.00,0.00,0.00,0.00,0.00,685.74,704.65,708.32,704.82,698.07,691.50,688.48,685.61,684.23,681.23,677.36,670.09,664.37,659.76,659.45,658.67,657.39,656.09,656.14,654.32,651.89,650.14,650.55,650.95,651.84,653.07,653.63,653.77,654.60,655.70,656.61,657.43,657.83,658.38,658.37,661.07,660.69,660.54,659.66,662.16,663.04,661.94,660.27,662.29,665.40,667.93,668.83,670.50,673.15,675.96,676.51,677.71,677.99,680.16,679.81,681.35,681.81,682.74,684.31,686.88,689.42,690.32,693.32,698.65,705.68,711.19,716.60,719.10,721.71,724.15,723.49,717.24,673.37,589.41,561.75,543.21,570.78,504.20,509.07,0.00,0.00,0.00,0.00,0.00,0.00,0.00,0.00,0.00,0.00,0.00,0.00,0.00,0.00,0.00,0.00,0.00,0.00,0.00,0.00,0.00,0.00,0.00,0.00,0.00,0.00,0.00,0.00,0.00,0.00,0.00,0.00,0.00,0.00,0.00,0.00,0.00,0.00,0.00,0.00,0.00,0.00,0.00,0.00,0.00,0.00,0.00,0.00,0.00,0.00,0.00,0.00,0.00,0.00,0.00,0.00,0.00,0.00,0.00,0.00,0.00,0.00,0.00,0.00,0.00,0.00,0.00,0.00,0.00,0.00,0.00,0.00,0.00,0.00,0.00,0.00,0.00,0.00,0.00,0.00,0.00,0.00,0.00,0.00,0.00,0.00,0.00,0.00,0.00,0.00,0.00,0.00,0.00,0.00,0.00,0.00,0.00,0.00,0.00,0.00,0.00,0.00,0.00,0.00,0.00,0.00,0.00,0.00,0.00,0.00,0.00,0.00,0.00,0.00,0.00,0.00,0.00,0.00,0.00,0.00,0.00,0.00,0.00,0.00,0.00,0.00,0.00,0.00,0.00,0.00,0.00,0.00,0.00,0.00,0.00,0.00,0.00,0.00,0.00,0.00,0.00,0.00,0.00,0.00,0.00,0.00,0.00,0.00,0.00,0.00,0.00,0.00,0.00,0.00,0.00
0.00,0.00,0.00,0.00,0.00,0.00,0.00,0.00,0.00,0.00,0.00,0.00,0.00,0.00,0.00,0.00,1578.04,1610.40,1621.45,1624.13,1631.11,1634.33,1634.54,1639.48,1644.06,1648.70,1650.70,1652.73,1652.17,1653.38,1654.95,1657.70,1659.89,1661.47,1663.91,1663.29,1664.37,1663.62,1664.33,1663.60,1663.40,1663.99,1664.83,1663.75,1662.59,1662.49,1664.30,1665.59,1665.08,1666.15,1665.71,1667.38,1665.02,1663.43,1662.14,1662.09,1663.82,1662.36,1662.74,1661.30,1661.90,1661.62,1659.97,1655.52,1648.50,1640.89,0.00,0.00,0.00,0.00,0.00,0.00,0.00,0.00,0.00,0.00,0.00,0.00,0.00,0.00,0.00,0.00,0.00,0.00,0.00,0.00,0.00,0.00,0.00,0.00,0.00,0.00,0.00,0.00,0.00,0.00,0.00,0.00,0.00,0.00,0.00,0.00,0.00,1659.93,1662.87,1666.62,1667.07,1671.96,1672.15,1667.92,0.00,1664.55,1675.49,1681.40,1684.07,1685.79,1686.20,1686.95,1687.79,1689.86,1691.69,1692.14,1692.71,1692.60,1693.11,1693.20,1694.18,1695.32,1696.05,1696.72,1697.17,1698.24,1698.87,1700.24,1700.18,1701.39,1701.36,1702.65,1704.03,1705.49,1705.01,1704.43,1704.45,1706.29,1707.24,1708.46,1708.75,1709.22,1710.37,1711.37,1711.67,1711.87,1713.05,1714.99,1715.59,1716.84,1717.10,1717.77,1715.81,1716.52,1716.43,1719.10,1719.81,1721.52,1720.81,1720.46,1720.75,1721.94,1723.77,1724.59,1724.17,1724.84,1725.25,1727.46,1728.38,1729.02,1729.21,1730.35,1731.43,1730.25,1728.77,1729.05,1731.42,1732.74,1734.30,1735.74,1736.74,1736.01,1735.47,1735.85,1736.79,1737.32,1739.03,1739.92,1740.58,1740.82,1743.77,1745.20,1744.31,1742.88,1743.51,1745.11,1745.71,1745.40,1746.15,1746.64,1747.99,1749.75,1750.46,1751.59,1751.61,1751.81,1751.32,1751.57,1752.12,1752.14,1752.17,1753.57,1754.90,1755.01,1754.13,1755.94,1757.99,1762.23,1763.49,1763.84,1762.82,1762.88,1764.32,1766.20,1767.92,1768.46,1769.52,1771.16,1772.55,1773.73,1774.28,1775.77,1777.37,1777.15,1775.97,1775.06,1775.22,1777.52,1778.81,1778.39,1777.18,1775.05,1779.10,1784.52,1788.60,1791.50,0.00,0.00,0.00,0.00,0.00,0.00,0.00,0.00,0.00,0.00,703.71,708.22,703.95,695.86,688.55,684.92,681.72,679.99,677.71,673.86,668.23,663.17,659.77,658.93,657.23,656.02,655.44,655.54,653.40,651.79,651.15,652.23,651.40,652.47,652.60,653.99,653.25,655.44,655.53,656.34,655.20,655.33,654.87,655.58,657.11,659.26,659.16,659.73,660.27,659.74,658.57,658.11,660.38,663.36,664.84,666.46,668.53,671.69,674.30,674.15,674.20,674.73,676.75,679.06,681.23,681.54,682.31,683.72,686.85,689.51,690.89,694.45,698.74,705.18,710.24,714.87,716.70,720.35,723.04,723.41,714.73,659.62,586.89,563.03,602.51,528.76,536.86,536.38,527.41,0.00,0.00,0.00,0.00,0.00,0.00,0.00,0.00,0.00,0.00,0.00,0.00,0.00,0.00,0.00,0.00,0.00,0.00,0.00,0.00,0.00,0.00,0.00,0.00,0.00,0.00,0.00,0.00,0.00,0.00,0.00,0.00,0.00,0.00,0.00,0.00,0.00,0.00,0.00,0.00,0.00,0.00,0.00,0.00,0.00,0.00,0.00,0.00,0.00,0.00,0.00,0.00,0.00,0.00,0.00,0.00,0.00,0.00,0.00,0.00,0.00,0.00,0.00,0.00,0.00,0.00,0.00,0.00,0.00,0.00,0.00,0.00,0.00,0.00,0.00,0.00,0.00,0.00,0.00,0.00,0.00,0.00,0.00,0.00,0.00,0.00,0.00,0.00,0.00,0.00,0.00,0.00,0.00,0.00,0.00,0.00,0.00,0.00,0.00,0.00,0.00,0.00,0.00,0.00,0.00,0.00,0.00,0.00,0.00,0.00,0.00,0.00,0.00,0.00,0.00,0.00,0.00,0.00,0.00,0.00,0.00,0.00,0.00,0.00,0.00,0.00,0.00,0.00,0.00,0.00,0.00,0.00,0.00,0.00,0.00,0.00,0.00,0.00,0.00,0.00,0.00,0.00,0.00,0.00,0.00,0.00,0.00,0.00,0.00,0.00,0.00,0.00,0.00,0.00
0.00,0.00,0.00,0.00,0.00,0.00,0.00,0.00,0.00,0.00,0.00,0.00,0.00,0.00,0.00,0.00,0.00,1603.83,1618.80,1623.80,1629.11,1633.25,1632.25,1638.47,1643.82,1649.56,1651.74,1654.96,1655.70,1656.97,1657.61,1659.13,1660.00,1660.93,1662.24,1662.83,1664.14,1664.97,1665.93,1664.51,1664.36,1664.42,1667.03,1666.73,1665.78,1664.75,1666.47,1668.00,1667.95,1668.44,1667.70,1668.26,1666.25,1664.46,1664.24,1665.04,1666.85,1665.61,1664.98,1664.06,1664.18,1664.19,1663.44,1661.43,1660.17,1657.26,1650.91,0.00,0.00,0.00,0.00,0.00,0.00,0.00,0.00,0.00,0.00,0.00,0.00,0.00,0.00,0.00,0.00,0.00,0.00,0.00,0.00,0.00,0.00,0.00,0.00,0.00,0.00,0.00,0.00,0.00,0.00,0.00,0.00,0.00,0.00,0.00,0.00,0.00,1645.20,1647.58,1646.33,1649.56,1650.45,1638.64,0.00,1655.59,1670.79,1677.84,1681.99,1685.58,1687.96,1689.28,1689.87,1691.36,1692.53,1692.90,1693.45,1692.69,1693.51,1694.20,1695.72,1695.69,1696.34,1697.37,1698.63,1699.64,1700.17,1700.64,1700.63,1700.72,1700.94,1702.18,1703.85,1705.51,1704.69,1704.99,1705.81,1708.20,1708.91,1709.88,1710.37,1711.38,1711.37,1712.52,1711.82,1713.11,1714.05,1715.57,1716.59,1717.01,1717.37,1717.04,1715.86,1716.84,1717.27,1720.13,1720.34,1722.17,1720.63,1720.76,1720.97,1723.01,1724.49,1723.89,1724.16,1725.87,1727.93,1729.34,1729.72,1729.62,1730.32,1731.47,1733.24,1732.63,1731.74,1732.16,1733.81,1735.07,1735.78,1736.36,1736.76,1736.51,1736.25,1736.45,1737.01,1738.05,1739.84,1740.52,1740.89,1741.17,1744.46,1746.97,1746.81,1744.75,1744.41,1744.88,1746.48,1747.05,1748.31,1747.87,1748.69,1750.97,1751.82,1753.08,1752.13,1752.92,1752.03,1753.45,1754.48,1755.76,1756.36,1757.84,1759.40,1759.05,1757.90,1759.82,1762.48,1766.53,1766.25,1767.57,1766.59,1766.84,0.00,1768.48,1768.37,1769.09,1769.51,0.00,0.00,1780.38,1786.00,1793.86,0.00,0.00,0.00,0.00,0.00,0.00,0.00,1778.73,1777.17,1780.16,1786.53,1794.99,1800.09,1805.87,0.00,0.00,0.00,0.00,0.00,0.00,0.00,0.00,521.12,0.00,706.10,710.85,709.25,699.83,692.44,688.03,684.74,684.13,681.95,679.64,674.28,670.85,667.99,666.06,663.48,661.55,661.34,661.37,660.43,659.96,658.97,658.84,656.54,656.78,657.68,659.00,657.53,658.28,658.23,660.22,658.23,658.12,657.25,658.94,661.25,663.37,663.40,663.19,663.39,662.18,661.46,660.86,663.79,666.44,669.55,671.06,672.37,673.27,676.53,678.11,679.18,679.30,679.66,680.29,681.88,682.77,685.37,686.88,690.86,693.88,695.67,698.64,701.96,709.73,715.85,720.29,720.20,722.82,725.34,725.53,715.47,660.15,579.71,559.77,552.81,532.01,527.93,541.95,0.00,0.00,0.00,0.00,0.00,0.00,0.00,0.00,0.00,0.00,0.00,0.00,0.00,0.00,0.00,0.00,0.00,0.00,0.00,0.00,0.00,0.00,0.00,0.00,0.00,0.00,0.00,0.00,0.00,0.00,0.00,0.00,0.00,0.00,0.00,0.00,0.00,0.00,0.00,0.00,0.00,0.00,0.00,0.00,0.00,0.00,0.00,0.00,0.00,0.00,0.00,0.00,0.00,0.00,0.00,0.00,0.00,0.00,0.00,0.00,0.00,0.00,0.00,0.00,0.00,0.00,0.00,0.00,0.00,0.00,0.00,0.00,0.00,0.00,0.00,0.00,0.00,0.00,0.00,0.00,0.00,0.00,0.00,0.00,0.00,0.00,0.00,0.00,0.00,0.00,0.00,0.00,0.00,0.00,0.00,0.00,0.00,0.00,0.00,0.00,0.00,0.00,0.00,0.00,0.00,0.00,0.00,0.00,0.00,0.00,0.00,0.00,0.00,0.00,0.00,0.00,0.00,0.00,0.00,0.00,0.00,0.00,0.00,0.00,0.00,0.00,0.00,0.00,0.00,0.00,0.00,0.00,0.00,0.00,0.00,0.00,0.00,0.00,0.00,0.00,0.00,0.00,0.00,0.00,0.00,0.00,0.00,0.00,0.00,0.00,0.00,0.00,0.00,0.00,0.00
0.00,0.00,0.00,0.00,0.00,0.00,0.00,0.00,0.00,0.00,0.00,0.00,0.00,0.00,0.00,0.00,0.00,1594.91,1615.33,1623.93,1626.06,1630.31,1629.16,1636.40,1641.86,1647.02,1648.09,1651.96,1653.33,1655.78,1655.50,1659.37,1659.67,1659.43,1658.85,1660.90,1661.90,1662.05,1661.64,1663.11,1664.66,1666.12,1666.72,1665.52,1663.54,1663.03,1663.76,1665.72,1665.27,1665.91,1663.98,1664.73,1663.70,1663.95,1663.14,1664.12,1665.83,1665.56,1663.22,1661.56,1661.47,1662.92,1662.86,1662.97,1662.41,1662.23,1658.47,1652.77,1644.29,0.00,0.00,0.00,0.00,0.00,0.00,0.00,0.00,0.00,0.00,0.00,0.00,0.00,0.00,0.00,0.00,0.00,0.00,0.00,0.00,0.00,0.00,0.00,0.00,0.00,0.00,0.00,0.00,0.00,0.00,0.00,0.00,0.00,0.00,0.00,0.00,0.00,0.00,0.00,0.00,0.00,0.00,0.00,1657.01,1670.45,1677.23,1681.75,1684.17,1686.64,1686.12,1687.90,1688.14,1689.79,1690.84,1690.65,1689.91,1690.48,1692.06,1693.50,1694.08,1694.43,1695.17,1695.53,1697.67,1698.90,1700.00,1699.31,1699.72,1700.77,1701.78,1702.18,1701.24,1702.17,1703.81,1706.07,1706.64,1706.90,1707.63,1708.32,1709.30,1710.24,1710.07,1711.81,1712.67,1714.47,1715.29,1715.33,1715.64,1715.54,1715.61,1716.34,1715.71,1717.67,1717.24,1719.37,1718.65,1719.28,1718.61,1719.78,1721.23,1720.77,1721.35,1722.98,1725.95,1727.80,1727.67,1726.98,1728.15,1729.75,1731.46,1730.33,1730.64,1731.64,1733.10,1733.85,1734.59,1735.40,1735.62,1735.97,1735.48,1735.50,1735.48,1737.13,1738.30,1739.38,1739.12,1740.22,1742.18,1744.30,1744.03,1742.70,1743.01,1743.31,1745.10,1746.65,1747.30,1746.23,1745.68,1747.95,1749.17,1750.50,1750.94,1752.83,1752.79,1754.96,1755.78,1757.31,1757.35,1761.01,1765.46,1765.76,1769.25,1773.98,1783.30,1789.95,1800.02,1791.46,1802.36,1813.50,0.00,680.33,698.31,704.27,709.23,0.00,718.72,721.44,721.60,722.00,724.21,724.98,723.56,0.00,0.00,0.00,0.00,717.05,710.67,699.77,706.40,681.65,0.00,0.00,0.00,0.00,0.00,0.00,517.87,500.15,501.78,505.41,517.75,0.00,702.43,708.55,707.87,699.83,691.81,687.59,683.88,683.96,682.09,680.81,675.56,671.85,668.46,667.89,665.05,664.47,662.97,662.06,660.83,661.71,662.14,662.14,659.28,658.54,658.32,658.66,657.98,658.42,658.38,658.35,656.44,656.52,656.26,658.63,659.09,661.23,660.40,662.07,662.26,661.98,661.68,661.31,663.43,664.87,667.59,669.15,670.79,671.43,673.90,676.13,676.68,677.29,677.38,678.82,679.59,680.00,682.63,685.05,688.86,693.37,695.70,700.74,705.14,713.29,717.89,719.54,720.24,722.70,725.85,725.29,712.56,641.96,587.04,558.97,536.09,566.81,542.92,524.53,0.00,0.00,0.00,0.00,0.00,0.00,0.00,0.00,0.00,0.00,0.00,0.00,0.00,0.00,0.00,0.00,0.00,0.00,0.00,0.00,0.00,0.00,0.00,0.00,0.00,0.00,0.00,0.00,0.00,0.00,0.00,0.00,0.00,0.00,0.00,0.00,0.00,0.00,0.00,0.00,0.00,0.00,0.00,0.00,0.00,0.00,0.00,0.00,0.00,0.00,0.00,0.00,0.00,0.00,0.00,0.00,0.00,0.00,0.00,0.00,0.00,0.00,0.00,0.00,0.00,0.00,0.00,0.00,0.00,0.00,0.00,0.00,0.00,0.00,0.00,0.00,0.00,0.00,0.00,0.00,0.00,0.00,0.00,0.00,0.00,0.00,0.00,0.00,0.00,0.00,0.00,0.00,0.00,0.00,0.00,0.00,0.00,0.00,0.00,0.00,0.00,0.00,0.00,0.00,0.00,0.00,0.00,0.00,0.00,0.00,0.00,0.00,0.00,0.00,0.00,0.00,0.00,0.00,0.00,0.00,0.00,0.00,0.00,0.00,0.00,0.00,0.00,0.00,0.00,0.00,0.00,0.00,0.00,0.00,0.00,0.00,0.00,0.00,0.00,0.00,0.00,0.00,0.00,0.00,0.00,0.00,0.00,0.00,0.00,0.00,0.00,0.00,0.00,0.00,0.00
0.00,0.00,0.00,0.00,0.00,0.00,0.00,0.00,0.00,0.00,0.00,0.00,0.00,0.00,0.00,0.00,0.00,1586.18,1614.28,1626.46,1629.41,1630.05,1630.82,1637.37,1643.07,1646.27,1648.40,1651.83,1654.43,1655.66,1656.40,1659.98,1660.59,1660.47,1658.84,1661.74,1663.51,1664.06,1663.31,1663.76,1666.41,1667.45,1668.24,1667.16,1665.50,1665.27,1666.11,1667.47,1667.91,1668.30,1666.19,1665.63,1665.34,1666.77,1665.68,1665.70,1666.08,1666.89,1664.85,1663.97,1663.68,1664.76,1665.36,1666.01,1666.18,1665.61,1664.18,1661.75,1659.78,1653.91,1644.54,0.00,0.00,0.00,0.00,0.00,0.00,0.00,0.00,0.00,0.00,0.00,0.00,0.00,0.00,0.00,0.00,0.00,0.00,0.00,0.00,0.00,0.00,0.00,0.00,0.00,0.00,0.00,0.00,0.00,0.00,0.00,0.00,0.00,0.00,0.00,0.00,0.00,0.00,1343.23,1343.89,0.00,0.00,0.00,1670.87,1677.78,1684.45,1687.74,1687.98,1687.58,1688.48,1689.73,1691.47,1690.77,1690.15,1690.45,1692.51,1694.03,1695.63,1695.82,1697.33,1697.30,1699.47,1700.24,1701.39,1700.24,1701.15,1701.72,1703.86,1703.41,1703.72,1703.64,1704.85,1705.79,1706.05,1706.65,1707.52,1708.49,1709.35,1709.91,1710.59,1712.35,1713.02,1714.09,1715.14,1715.74,1716.22,1717.28,1718.29,1719.18,1717.61,1717.36,1717.13,1718.59,1720.01,1720.48,1720.33,1721.43,1723.77,1723.78,1724.17,1724.77,1727.46,1729.00,1729.01,1728.32,1729.26,1730.11,1731.78,1731.02,1732.75,1733.39,1734.06,1733.68,1733.68,1735.38,1735.88,1737.77,1737.48,1737.66,1736.63,1738.21,1739.54,1740.99,1739.91,1740.93,1742.08,1744.27,1744.74,1744.58,1744.28,1744.52,1745.66,1748.42,1748.28,1747.56,1745.86,1748.21,1749.48,1750.91,1751.16,1753.58,1756.25,1759.58,1762.78,1765.31,1769.95,1783.65,0.00,0.00,0.00,0.00,0.00,0.00,0.00,0.00,691.17,710.84,720.49,720.75,721.02,722.99,725.79,728.26,728.84,728.77,728.38,729.86,731.92,732.48,732.62,731.37,731.73,731.67,732.78,731.96,731.68,732.10,735.72,738.21,741.47,742.22,743.46,740.79,732.86,0.00,0.00,0.00,539.22,529.07,519.96,556.55,700.00,711.34,712.86,705.61,697.74,692.31,688.86,688.72,687.24,686.74,683.01,680.33,676.49,675.56,672.68,670.86,669.35,668.95,668.80,668.12,667.73,667.40,666.05,664.92,664.83,663.63,663.68,662.32,662.30,662.11,661.83,662.33,661.37,662.29,662.43,662.83,662.46,662.69,664.78,665.18,666.73,666.47,668.66,669.28,671.56,672.63,674.69,675.74,677.44,679.07,680.15,681.99,682.86,683.04,683.67,684.52,687.34,689.41,692.40,696.99,700.83,707.27,713.02,719.75,722.61,723.78,724.11,725.72,728.74,728.32,717.34,657.15,587.37,547.05,553.45,541.16,542.97,524.69,506.39,509.00,0.00,0.00,0.00,0.00,0.00,0.00,0.00,0.00,0.00,0.00,0.00,0.00,0.00,0.00,0.00,0.00,0.00,0.00,0.00,0.00,0.00,0.00,0.00,0.00,0.00,0.00,0.00,0.00,0.00,0.00,0.00,0.00,0.00,0.00,0.00,0.00,0.00,0.00,0.00,0.00,0.00,0.00,0.00,0.00,0.00,0.00,0.00,0.00,0.00,0.00,0.00,0.00,0.00,0.00,0.00,0.00,0.00,0.00,0.00,0.00,0.00,0.00,0.00,0.00,0.00,0.00,0.00,0.00,0.00,0.00,0.00,0.00,0.00,0.00,0.00,0.00,0.00,0.00,0.00,0.00,0.00,0.00,0.00,0.00,0.00,0.00,0.00,0.00,0.00,0.00,0.00,0.00,0.00,0.00,0.00,0.00,0.00,0.00,0.00,0.00,0.00,0.00,0.00,0.00,0.00,0.00,0.00,0.00,0.00,0.00,0.00,0.00,0.00,0.00,0.00,0.00,0.00,0.00,0.00,0.00,0.00,0.00,0.00,0.00,0.00,0.00,0.00,0.00,0.00,0.00,0.00,0.00,0.00,0.00,0.00,0.00,0.00,0.00,0.00,0.00,0.00,0.00,0.00,0.00,0.00,0.00,0.00,0.00,0.00,0.00,0.00,0.00,0.00
0.00,0.00,0.00,0.00,0.00,0.00,0.00,0.00,0.00,0.00,0.00,0.00,0.00,0.00,0.00,0.00,0.00,1583.38,1609.21,1623.16,1628.13,1629.09,1629.80,1635.69,1642.15,1645.19,1646.58,1648.93,1651.42,1653.93,1654.75,1658.19,1659.40,1659.59,1659.06,1659.52,1660.76,1659.75,1659.17,1660.36,1663.27,1666.02,1665.85,1664.72,1662.59,1662.96,1663.93,1664.95,1666.49,1667.76,1666.02,1664.70,1663.88,1666.52,1665.75,1666.43,1666.04,1666.57,1664.29,1663.64,1662.93,1663.12,1663.71,1664.01,1663.85,1663.12,1662.18,1662.23,1662.38,1660.74,1656.26,1645.89,0.00,0.00,0.00,0.00,0.00,0.00,0.00,0.00,0.00,0.00,0.00,0.00,0.00,0.00,0.00,0.00,0.00,0.00,0.00,0.00,0.00,0.00,0.00,0.00,0.00,0.00,0.00,0.00,0.00,0.00,0.00,0.00,0.00,0.00,0.00,0.00,0.00,0.00,1329.45,1328.84,0.00,0.00,1649.97,1667.07,1676.99,1682.24,1683.38,1683.99,1685.57,1687.24,1688.59,1688.77,1687.93,1688.40,1690.35,1692.06,1693.97,1693.18,1693.94,1694.00,1696.47,1698.35,1698.75,1697.76,1698.08,1699.73,1701.52,1701.13,1701.99,1702.88,1703.39,1703.35,1703.55,1704.22,1704.76,1705.51,1706.75,1707.27,1708.56,1710.97,1711.25,1712.09,1712.27,1714.11,1713.92,1715.83,1716.78,1719.17,1717.16,1715.93,1714.86,1715.71,1717.69,1718.20,1719.27,1719.69,1721.49,1722.06,1723.48,1724.39,1725.80,1726.55,1725.45,1724.83,1725.71,1727.23,1729.03,1728.33,1729.86,1730.09,1731.25,1731.16,1731.41,1733.03,1733.77,1736.36,1735.98,1736.72,1735.48,1737.05,1737.90,1739.16,1738.92,1740.16,1741.42,1742.06,1742.64,1742.12,1742.82,1743.09,1744.47,1747.23,1747.75,1747.91,1745.99,1747.12,1748.73,1750.51,1752.03,1754.99,1760.91,1764.15,1768.87,1771.89,0.00,0.00,0.00,0.00,0.00,0.00,0.00,0.00,678.16,707.21,716.94,723.11,726.51,727.50,728.48,729.32,731.02,731.87,731.22,729.50,729.23,729.82,731.01,731.60,732.25,731.70,731.47,732.56,735.14,736.44,735.71,736.12,738.72,741.30,743.54,744.78,748.33,749.61,751.24,750.34,746.63,736.55,0.00,0.00,547.69,0.00,0.00,709.38,711.97,706.66,698.89,692.22,687.49,687.09,685.91,685.61,682.93,681.41,678.59,678.20,675.54,673.19,671.67,671.81,671.96,669.96,669.87,669.53,668.32,666.47,665.65,664.97,665.39,664.01,662.99,661.61,660.88,661.40,659.99,661.04,660.19,661.24,661.06,661.46,662.71,663.36,665.20,666.43,667.81,669.37,670.66,672.91,673.89,675.57,676.11,677.87,678.21,680.41,681.22,682.82,683.21,685.72,687.74,691.16,692.33,696.45,701.01,709.41,716.00,720.13,721.18,722.52,723.45,724.82,727.36,726.35,713.98,652.25,605.15,596.09,560.10,549.70,537.76,525.16,530.03,520.68,523.03,502.93,0.00,0.00,0.00,0.00,0.00,0.00,0.00,0.00,0.00,0.00,0.00,0.00,0.00,0.00,0.00,0.00,0.00,0.00,0.00,0.00,0.00,0.00,0.00,0.00,0.00,0.00,0.00,0.00,0.00,0.00,0.00,0.00,0.00,0.00,0.00,0.00,0.00,0.00,0.00,0.00,0.00,0.00,0.00,0.00,0.00,0.00,0.00,0.00,0.00,0.00,0.00,0.00,0.00,0.00,0.00,0.00,0.00,0.00,0.00,0.00,0.00,0.00,0.00,0.00,0.00,0.00,0.00,0.00,0.00,0.00,0.00,0.00,0.00,0.00,0.00,0.00,0.00,0.00,0.00,0.00,0.00,0.00,0.00,0.00,0.00,0.00,0.00,0.00,0.00,0.00,0.00,0.00,0.00,0.00,0.00,0.00,0.00,0.00,0.00,0.00,0.00,0.00,0.00,0.00,0.00,0.00,0.00,0.00,0.00,0.00,0.00,0.00,0.00,0.00,0.00,0.00,0.00,0.00,0.00,0.00,0.00,0.00,0.00,0.00,0.00,0.00,0.00,0.00,0.00,0.00,0.00,0.00,0.00,0.00,0.00,0.00,0.00,0.00,0.00,0.00,0.00,0.00,0.00,0.00,0.00,0.00,0.00,0.00,0.00,0.00,0.00
0.00,0.00,0.00,0.00,0.00,0.00,0.00,0.00,0.00,0.00,0.00,0.00,0.00,0.00,0.00,0.00,0.00,0.00,1607.01,1622.85,1629.56,1629.84,1631.14,1637.02,1643.63,1646.86,1648.50,1650.67,1653.16,1654.97,1657.12,1660.44,1662.24,1661.91,1660.81,1660.64,1661.70,1660.34,1660.60,1660.96,1662.82,1664.09,1663.47,1663.95,1663.48,1664.28,1665.44,1665.86,1668.56,1669.35,1668.17,1666.10,1665.03,1666.52,1666.85,1667.06,1667.89,1667.79,1667.87,1667.90,1667.41,1665.76,1664.32,1663.59,1664.19,1664.31,1664.75,1664.36,1665.47,1664.36,1664.03,1658.46,1653.92,1644.26,0.00,0.00,0.00,0.00,0.00,0.00,0.00,0.00,0.00,0.00,0.00,0.00,0.00,0.00,0.00,0.00,0.00,0.00,0.00,0.00,0.00,0.00,0.00,0.00,0.00,0.00,0.00,0.00,0.00,0.00,0.00,0.00,0.00,0.00,0.00,0.00,0.00,0.00,0.00,0.00,0.00,1648.25,1670.37,1678.34,1683.54,1683.96,1686.23,1687.22,1688.80,1689.84,1690.41,1690.81,1692.16,1693.20,1695.15,1694.85,1695.42,1696.12,1696.99,1698.01,1698.35,1698.11,1699.15,1700.30,1702.26,1702.25,1704.19,1704.98,1704.68,1704.54,1704.52,1705.08,1704.96,1706.61,1707.91,1708.42,1709.88,1711.99,1712.90,1713.56,1713.89,1715.17,1714.49,1716.32,1717.08,1719.17,1718.01,1717.47,1717.56,1718.15,1719.36,1719.63,1720.91,1721.98,1723.12,1723.96,1725.15,1726.03,1727.06,1727.79,1727.34,1727.55,1727.45,1727.87,1729.11,1729.49,1731.23,1731.03,1732.30,1732.51,1731.85,1732.49,1732.88,1735.96,1736.74,1737.64,1737.51,1738.59,1738.88,1739.15,1739.41,1740.73,1741.57,1741.93,1743.44,1744.04,1745.17,1746.39,1747.91,1750.76,1750.92,1751.46,1750.00,1751.96,1755.19,1758.39,1762.68,1774.39,1784.98,0.00,0.00,0.00,0.00,0.00,0.00,688.61,686.71,685.52,696.47,706.90,715.89,724.03,729.61,732.83,733.28,731.58,731.31,731.27,733.25,733.77,733.77,732.18,732.83,732.55,733.51,733.66,734.87,733.94,733.76,735.49,738.70,740.37,738.71,738.24,739.80,742.13,745.27,746.89,751.90,754.52,759.01,759.55,759.65,757.03,754.52,743.55,0.00,591.24,649.47,713.49,717.80,712.52,704.73,696.86,693.13,691.74,690.27,688.97,687.98,687.27,685.25,682.82,681.21,678.79,678.86,677.95,677.15,674.23,675.39,675.11,674.47,671.43,670.66,669.77,669.47,667.89,666.97,666.95,666.46,665.77,664.34,664.76,665.33,664.63,664.98,663.98,666.30,666.49,669.24,670.70,673.05,674.69,676.52,678.32,678.93,679.91,680.30,681.29,682.56,684.82,686.36,686.86,688.13,690.93,693.29,695.83,697.04,701.07,706.35,714.24,719.23,722.07,722.72,724.21,724.58,725.89,727.62,727.12,710.46,640.08,593.08,576.12,561.67,564.21,531.69,537.22,550.64,556.75,536.55,0.00,511.93,0.00,0.00,0.00,0.00,0.00,0.00,0.00,0.00,0.00,0.00,0.00,0.00,0.00,0.00,0.00,0.00,0.00,0.00,0.00,0.00,0.00,0.00,0.00,0.00,0.00,0.00,0.00,0.00,0.00,0.00,0.00,0.00,0.00,0.00,0.00,0.00,0.00,0.00,0.00,0.00,0.00,0.00,0.00,0.00,0.00,0.00,0.00,0.00,0.00,0.00,0.00,0.00,0.00,0.00,0.00,0.00,0.00,0.00,0.00,0.00,0.00,0.00,0.00,0.00,0.00,0.00,0.00,0.00,0.00,0.00,0.00,0.00,0.00,0.00,0.00,0.00,0.00,0.00,0.00,0.00,0.00,0.00,0.00,0.00,0.00,0.00,0.00,0.00,0.00,0.00,0.00,0.00,0.00,0.00,0.00,0.00,0.00,0.00,0.00,0.00,0.00,0.00,0.00,0.00,0.00,0.00,0.00,0.00,0.00,0.00,0.00,0.00,0.00,0.00,0.00,0.00,0.00,0.00,0.00,0.00,0.00,0.00,0.00,0.00,0.00,0.00,0.00,0.00,0.00,0.00,0.00,0.00,0.00,0.00,0.00,0.00,0.00,0.00,0.00,0.00,0.00,0.00,0.00,0.00,0.00,0.00,0.00,0.00,0.00,0.00
