0.00,0.00,0.00,0.00,0.00,0.00,0.00,0.00,0.00,0.00,0.00,0.00,0.00,0.00,0.00,0.00,0.00,0.00,0.00,0.00,0.00,0.00,0.00,0.00,0.00,0.00,0.00,0.00,0.00,0.00,0.00,0.00,0.00,0.00,0.00,0.00,0.00,0.00,0.00,0.00,0.00,0.00,0.00,0.00,1558.56,1572.39,1582.30,1590.21,1594.59,1597.09,1598.54,1598.75,1598.90,1599.18,1600.45,1602.29,1603.34,1603.49,1604.56,1602.98,1602.12,1602.08,1604.41,1603.80,1603.92,1604.55,1607.24,1605.09,1605.61,1604.15,1604.94,1604.12,1606.07,1605.99,1608.20,1608.13,1609.31,1606.61,1606.34,1606.37,1606.85,1607.20,1608.29,1610.39,1611.21,1610.18,1610.65,1610.91,1611.23,1610.39,1609.69,1609.52,1609.75,1610.92,1612.27,1613.06,1613.03,1613.73,1613.88,1613.31,1613.19,1613.54,1615.50,1616.08,1615.81,1615.72,1616.71,1618.15,1618.41,1618.13,1617.48,1618.49,1616.86,1618.08,1616.69,1620.82,1620.30,1621.26,1619.46,1620.70,1619.99,1619.38,1619.96,1621.62,1623.35,1623.44,1623.51,1622.50,1622.80,1622.91,1624.38,1623.63,1624.63,1625.17,1626.91,1626.12,1626.10,1626.64,1627.82,1627.93,1627.79,1628.83,1630.78,1631.66,1631.85,1630.44,1630.89,1630.83,1630.79,1631.29,1632.62,1633.17,1632.49,1631.90,1632.29,1632.14,1633.51,1633.91,1634.94,1634.19,1635.17,1635.34,1634.81,1633.89,1634.75,1636.09,1636.41,1636.79,1637.56,1639.30,1639.15,1639.40,1639.56,1639.93,1640.89,1641.20,1641.31,1641.52,1641.79,1642.17,1641.21,1642.44,1642.11,1643.04,1642.56,1645.06,1645.70,1646.54,1644.35,1644.69,1645.86,1647.52,1648.42,1647.14,1647.41,1647.48,1648.44,1648.62,1648.59,1648.86,1649.06,1649.31,1650.99,1652.31,1652.63,1652.53,1652.95,1654.26,1653.73,1653.02,1652.89,1653.71,1655.83,1656.56,1656.49,1655.12,1653.90,1653.40,1655.32,1656.92,1660.54,1660.05,1659.18,1656.96,1657.45,1658.42,1659.47,1660.60,1660.78,1661.04,1660.49,1661.10,1661.70,1662.32,1663.19,1663.86,1664.23,1664.05,1663.98,1663.52,1663.74,1662.70,1663.94,1665.69,1669.88,1674.89,1680.89,0.00,0.00,0.00,0.00,0.00,0.00,0.00,0.00,0.00,0.00,0.00,0.00,672.86,675.86,669.91,644.90,634.53,592.37,575.40,589.03,0.00,692.02,696.96,695.12,690.81,686.83,686.09,689.54,689.83,689.57,685.56,681.76,678.42,676.18,669.73,661.11,651.70,648.42,645.99,645.16,645.92,647.29,650.07,651.32,653.77,655.38,660.78,663.15,663.54,661.87,661.31,662.49,662.08,663.10,662.62,662.24,661.03,658.14,657.54,656.69,658.89,658.21,657.06,654.68,654.54,654.94,655.32,655.46,655.92,657.15,656.39,654.35,653.27,652.99,653.70,655.55,656.41,655.99,653.97,655.79,657.68,660.37,659.73,661.19,662.19,664.31,665.32,667.79,670.35,672.47,672.53,672.93,672.93,674.59,675.27,677.72,679.20,684.65,689.33,693.75,696.32,698.95,698.49,698.30,697.57,699.45,700.98,699.73,696.20,693.05,690.72,684.71,674.08,667.43,658.61,641.41,0.00,0.00,0.00,0.00,0.00,0.00,0.00,0.00,0.00,0.00,0.00,0.00,0.00,0.00,0.00,0.00,0.00,0.00,0.00,0.00,0.00,0.00,0.00,0.00,0.00,0.00,0.00,0.00,0.00,0.00,0.00,0.00,0.00,0.00,0.00,0.00,0.00,0.00,0.00,0.00,0.00,0.00,0.00,0.00,0.00,0.00,0.00,0.00,0.00,0.00,0.00,0.00,0.00,0.00,0.00,0.00,0.00,0.00,0.00,0.00,0.00,0.00,0.00,0.00,0.00,0.00,0.00,0.00,0.00,0.00,0.00,0.00,0.00,0.00,0.00,0.00,0.00,0.00,0.00,0.00,0.00,0.00,0.00,0.00,0.00,0.00,0.00,0.00,0.00,0.00,0.00,0.00,0.00,0.00,0.00,0.00,0.00,0.00,0.00,0.00,0.00,0.00,0.00,0.00,0.00,0.00,0.00,0.00,0.00,0.00,0.00,0.00,0.00,0.00,0.00,0.00,0.00,0.00,0.00,0.00,0.00,0.00,0.00,0.00,0.00,0.00,0.00,0.00,0.00,0.00,0.00,0.00
0.00,0.00,0.00,0.00,0.00,0.00,0.00,0.00,0.00,0.00,0.00,0.00,0.00,0.00,0.00,0.00,0.00,0.00,0.00,0.00,0.00,0.00,0.00,0.00,0.00,0.00,0.00,0.00,0.00,0.00,0.00,0.00,0.00,0.00,0.00,0.00,0.00,0.00,0.00,0.00,0.00,0.00,0.00,0.00,0.00,0.00,0.00,1569.86,1580.42,1589.44,1594.93,1600.18,1601.72,1604.70,1605.53,1607.93,1608.22,1607.83,1608.52,1608.16,1607.34,1607.93,1609.24,1609.02,1607.75,1608.07,1609.04,1608.56,1609.03,1608.97,1608.67,1608.28,1609.23,1611.02,1612.98,1613.55,1613.03,1611.99,1612.05,1612.63,1613.04,1612.92,1613.30,1613.03,1613.12,1612.87,1614.38,1615.47,1615.74,1613.52,1612.86,1612.16,1613.56,1614.94,1616.49,1617.66,1616.93,1617.49,1617.52,1618.01,1617.18,1617.21,1618.06,1619.27,1620.02,1620.70,1621.20,1622.01,1620.99,1621.95,1621.50,1622.17,1619.76,1620.50,1620.86,1624.23,1623.45,1624.00,1622.66,1623.81,1623.08,1623.33,1624.06,1625.67,1626.15,1626.81,1626.64,1626.67,1625.79,1626.59,1628.30,1628.88,1629.58,1630.43,1631.27,1629.86,1628.98,1630.14,1631.58,1632.21,1632.66,1633.27,1633.96,1634.95,1636.19,1635.76,1635.20,1634.56,1634.50,1634.67,1636.12,1636.88,1637.60,1637.03,1636.57,1636.68,1637.91,1638.03,1639.18,1638.42,1640.46,1639.63,1640.58,1639.48,1640.17,1640.46,1640.32,1641.07,1642.40,1643.81,1643.23,1642.06,1643.15,1643.24,1644.42,1644.65,1645.59,1646.38,1646.42,1646.64,1645.92,1646.33,1647.31,1648.13,1647.85,1648.10,1648.45,1649.57,1649.19,1649.84,1650.96,1652.10,1653.49,1652.86,1652.09,1650.64,1651.74,1652.28,1652.59,1652.36,1652.95,1653.22,1654.52,1655.34,1656.18,1656.68,1657.58,1658.38,1657.43,1657.61,1657.94,1658.79,1659.76,1660.92,1661.29,1659.34,1657.31,1656.60,1659.56,1661.40,1663.10,1663.50,1662.83,1662.06,1661.81,1663.21,1664.23,1664.81,1665.18,1665.40,1665.05,1665.00,1666.34,1666.99,1668.55,1667.84,1669.03,1669.10,1669.56,1668.53,1667.80,1667.14,1668.00,1671.17,1674.71,1677.15,1676.98,1682.65,0.00,0.00,0.00,0.00,0.00,0.00,0.00,0.00,0.00,0.00,654.73,676.23,674.37,650.89,0.00,0.00,1714.53,1709.00,1735.81,0.00,683.93,692.26,692.57,690.16,687.51,687.93,691.38,692.33,691.76,687.16,682.05,679.62,676.61,671.69,662.80,652.01,647.82,647.47,648.01,649.51,649.23,651.12,652.52,656.81,658.61,663.14,664.46,665.81,663.84,664.08,664.55,663.66,663.83,664.42,664.92,665.37,661.83,661.87,660.97,663.55,661.80,659.65,656.32,656.13,655.57,657.55,657.62,659.21,659.50,659.85,658.22,658.14,657.23,657.46,657.42,658.76,658.50,658.69,659.96,661.96,663.18,663.66,664.07,664.95,665.68,668.30,670.81,673.47,675.40,676.00,676.67,675.74,676.45,675.88,677.39,679.06,686.56,693.26,698.06,701.14,702.96,703.35,703.13,703.60,703.87,705.21,704.63,703.06,698.62,694.56,686.10,675.69,669.67,666.33,648.86,0.00,0.00,0.00,0.00,0.00,0.00,0.00,0.00,0.00,0.00,0.00,0.00,0.00,0.00,0.00,0.00,0.00,0.00,0.00,0.00,0.00,0.00,0.00,0.00,0.00,0.00,0.00,0.00,0.00,0.00,0.00,0.00,0.00,0.00,0.00,0.00,0.00,0.00,0.00,0.00,0.00,0.00,0.00,0.00,0.00,0.00,0.00,0.00,0.00,0.00,0.00,0.00,0.00,0.00,0.00,0.00,0.00,0.00,0.00,0.00,0.00,0.00,0.00,0.00,0.00,0.00,0.00,0.00,0.00,0.00,0.00,0.00,0.00,0.00,0.00,0.00,0.00,0.00,0.00,0.00,0.00,0.00,0.00,0.00,0.00,0.00,0.00,0.00,0.00,0.00,0.00,0.00,0.00,0.00,0.00,0.00,0.00,0.00,0.00,0.00,0.00,0.00,0.00,0.00,0.00,0.00,0.00,0.00,0.00,0.00,0.00,0.00,0.00,0.00,0.00,0.00,0.00,0.00,0.00,0.00,0.00,0.00,0.00,0.00,0.00,0.00,0.00,0.00,0.00,0.00,0.00,0.00
0.00,0.00,0.00,0.00,0.00,0.00,0.00,0.00,0.00,0.00,0.00,0.00,0.00,0.00,0.00,0.00,0.00,0.00,0.00,0.00,0.00,0.00,0.00,0.00,0.00,0.00,0.00,0.00,0.00,0.00,0.00,0.00,0.00,0.00,0.00,0.00,0.00,0.00,0.00,0.00,0.00,0.00,0.00,0.00,0.00,0.00,0.00,0.00,0.00,1566.48,1579.16,1590.05,1596.20,1600.20,1603.73,1608.21,1610.15,1609.20,1608.32,1608.15,1608.12,1608.79,1610.57,1610.10,1610.04,1609.16,1609.49,1609.56,1612.18,1612.70,1611.98,1609.44,1610.28,1611.82,1612.41,1613.13,1612.21,1612.55,1613.53,1613.46,1614.50,1614.30,1615.37,1613.95,1614.12,1614.08,1615.47,1614.14,1614.28,1612.67,1614.28,1614.25,1616.73,1616.93,1617.78,1618.67,1618.49,1618.82,1618.10,1618.15,1618.01,1617.29,1618.67,1618.22,1619.72,1619.68,1621.27,1622.23,1621.72,1622.20,1623.03,1623.03,1622.33,1622.76,1624.55,1625.77,1624.31,1623.54,1623.50,1624.49,1624.88,1624.67,1626.08,1626.76,1627.14,1626.54,1626.93,1627.63,1626.91,1627.61,1629.20,1630.36,1631.53,1632.39,1632.76,1631.06,1630.22,1631.35,1632.77,1632.84,1634.08,1634.23,1634.37,1634.37,1635.32,1635.52,1635.84,1635.31,1636.18,1635.84,1637.67,1638.24,1639.02,1638.23,1637.66,1638.27,1639.47,1639.32,1640.31,1640.04,1642.29,1641.97,1643.46,1641.74,1641.38,1641.58,1641.57,1643.24,1643.86,1645.51,1644.16,1643.52,1643.69,1644.82,1644.96,1646.56,1646.36,1647.56,1646.95,1647.70,1647.74,1647.97,1649.60,1649.94,1650.40,1649.67,1650.91,1651.08,1650.37,1650.24,1651.38,1652.56,1653.54,1653.89,1654.61,1653.93,1653.76,1652.94,1653.13,1653.50,1654.04,1654.75,1655.92,1657.38,1657.80,1658.61,1659.11,1659.97,1658.83,1659.15,1660.18,1661.14,1661.73,1661.87,1662.39,1662.06,1660.89,1660.73,1661.50,1662.88,1664.22,1665.17,1664.94,1665.24,1665.01,1665.44,1664.60,1665.28,1665.97,1666.94,1666.59,1667.24,1667.82,1668.32,1668.83,1668.40,1669.52,1670.22,1670.85,1669.81,1669.12,1668.44,1668.62,1670.78,1674.72,1678.20,1677.12,1680.04,1687.24,0.00,0.00,0.00,0.00,0.00,0.00,0.00,0.00,0.00,660.23,674.84,672.17,656.96,0.00,0.00,1713.84,1706.46,1713.04,600.66,674.39,683.32,686.68,685.96,685.12,684.97,687.12,688.08,686.39,681.06,677.85,677.38,676.79,672.43,661.35,649.64,644.74,643.76,644.45,646.15,647.76,649.31,652.47,655.49,658.05,659.95,660.14,660.98,659.25,659.67,660.16,660.26,662.99,664.78,664.98,663.31,659.95,660.82,660.99,662.54,661.43,659.21,656.97,656.20,655.69,656.72,656.54,657.58,657.01,656.54,655.71,655.49,654.73,654.47,653.86,655.82,657.02,658.38,658.67,659.40,660.93,661.87,662.08,662.58,663.92,665.33,667.70,669.97,674.12,673.59,674.43,673.47,675.25,674.20,675.67,678.23,686.05,693.35,697.62,700.71,702.19,703.34,703.82,704.77,703.46,704.10,702.76,702.74,698.59,694.88,685.74,674.87,670.48,667.79,652.30,0.00,0.00,0.00,0.00,0.00,0.00,0.00,0.00,0.00,0.00,0.00,0.00,0.00,0.00,0.00,0.00,0.00,0.00,0.00,0.00,0.00,0.00,0.00,0.00,0.00,0.00,0.00,0.00,0.00,0.00,0.00,0.00,0.00,0.00,0.00,0.00,0.00,0.00,0.00,0.00,0.00,0.00,0.00,0.00,0.00,0.00,0.00,0.00,0.00,0.00,0.00,0.00,0.00,0.00,0.00,0.00,0.00,0.00,0.00,0.00,0.00,0.00,0.00,0.00,0.00,0.00,0.00,0.00,0.00,0.00,0.00,0.00,0.00,0.00,0.00,0.00,0.00,0.00,0.00,0.00,0.00,0.00,0.00,0.00,0.00,0.00,0.00,0.00,0.00,0.00,0.00,0.00,0.00,0.00,0.00,0.00,0.00,0.00,0.00,0.00,0.00,0.00,0.00,0.00,0.00,0.00,0.00,0.00,0.00,0.00,0.00,0.00,0.00,0.00,0.00,0.00,0.00,0.00,0.00,0.00,0.00,0.00,0.00,0.00,0.00,0.00,0.00,0.00,0.00,0.00,0.00,0.00
0.00,0.00,0.00,0.00,0.00,0.00,0.00,0.00,0.00,0.00,0.00,0.00,0.00,0.00,0.00,0.00,0.00,0.00,0.00,0.00,0.00,0.00,0.00,0.00,0.00,0.00,0.00,0.00,0.00,0.00,0.00,0.00,0.00,0.00,0.00,0.00,0.00,0.00,0.00,0.00,0.00,0.00,0.00,0.00,0.00,0.00,0.00,0.00,0.00,0.00,0.00,0.00,1577.29,1590.00,1597.88,1604.79,1608.86,1611.69,1611.52,1611.89,1611.09,1610.98,1611.41,1612.17,1613.27,1612.36,1612.31,1613.18,1615.53,1616.43,1615.90,1614.29,1613.64,1614.33,1614.64,1616.78,1615.98,1616.03,1614.68,1615.47,1616.76,1618.89,1620.51,1620.37,1619.14,1618.58,1618.33,1617.41,1617.39,1616.28,1617.75,1618.38,1620.58,1620.62,1621.69,1623.58,1624.01,1624.03,1622.85,1623.55,1622.91,1622.69,1622.89,1622.47,1623.74,1623.64,1625.05,1626.15,1626.05,1627.03,1626.74,1627.22,1625.87,1626.20,1627.33,1627.85,1627.70,1627.63,1628.89,1628.89,1629.00,1629.39,1631.24,1631.28,1631.35,1631.05,1632.24,1632.60,1631.41,1631.97,1632.54,1633.99,1634.70,1636.72,1637.74,1636.90,1635.51,1635.71,1637.08,1637.49,1638.68,1638.26,1637.95,1638.47,1639.06,1639.52,1639.25,1639.04,1639.68,1639.02,1640.57,1641.34,1642.84,1642.48,1642.46,1642.47,1643.32,1643.43,1644.99,1644.55,1645.40,1644.39,1646.56,1646.52,1647.36,1647.12,1646.82,1648.19,1648.66,1650.20,1649.14,1649.38,1651.31,1651.64,1650.79,1649.72,1650.85,1651.51,1651.07,1651.53,1653.16,1654.14,1655.13,1655.02,1655.18,1653.45,1653.86,1653.24,1654.51,1654.31,1655.51,1655.12,1656.38,1657.20,1659.33,1659.76,1659.32,1657.99,1657.87,1658.34,1658.46,1659.07,1659.83,1661.56,1661.81,1663.50,1664.51,1664.38,1663.78,1663.65,1665.79,1665.67,1665.40,1663.82,1664.64,1664.88,1665.61,1664.86,1666.36,1666.99,1667.85,1667.74,1667.92,1668.32,1668.21,1668.09,1668.22,1668.71,1669.76,1670.47,1670.67,1671.34,1672.27,1673.37,1674.14,1673.70,1673.41,1673.61,1674.37,1674.58,1674.14,1674.20,1675.52,1676.78,1678.80,1681.42,1681.19,1682.61,1686.21,0.00,0.00,0.00,0.00,0.00,0.00,0.00,0.00,0.00,660.15,679.82,674.71,666.89,0.00,0.00,1722.16,1710.07,1710.10,0.00,0.00,682.71,688.94,691.02,689.51,688.58,686.65,685.35,683.78,681.74,680.60,679.57,678.02,674.19,661.68,649.81,645.70,645.15,645.96,647.64,648.74,650.61,652.89,656.60,658.95,661.70,662.67,663.57,660.89,660.28,659.91,661.25,664.17,667.97,668.54,666.86,663.51,664.83,664.99,665.11,664.19,662.77,660.68,659.07,658.20,659.71,659.66,660.83,659.71,659.08,658.57,659.75,658.98,658.91,657.64,659.31,660.52,662.98,663.03,662.78,662.89,664.70,665.03,665.19,666.00,668.42,671.46,673.86,676.57,676.72,677.19,677.56,678.41,677.31,677.82,681.54,690.33,698.54,701.00,702.60,703.17,704.56,706.78,708.43,707.64,706.22,704.78,704.37,703.24,700.49,695.18,685.75,677.65,670.24,652.86,0.00,0.00,0.00,0.00,0.00,0.00,0.00,0.00,0.00,0.00,0.00,0.00,0.00,0.00,0.00,0.00,0.00,0.00,0.00,0.00,0.00,0.00,0.00,0.00,0.00,0.00,0.00,0.00,0.00,0.00,0.00,0.00,0.00,0.00,0.00,0.00,0.00,0.00,0.00,0.00,0.00,0.00,0.00,0.00,0.00,0.00,0.00,0.00,0.00,0.00,0.00,0.00,0.00,0.00,0.00,0.00,0.00,0.00,0.00,0.00,0.00,0.00,0.00,0.00,0.00,0.00,0.00,0.00,0.00,0.00,0.00,0.00,0.00,0.00,0.00,0.00,0.00,0.00,0.00,0.00,0.00,0.00,0.00,0.00,0.00,0.00,0.00,0.00,0.00,0.00,0.00,0.00,0.00,0.00,0.00,0.00,0.00,0.00,0.00,0.00,0.00,0.00,0.00,0.00,0.00,0.00,0.00,0.00,0.00,0.00,0.00,0.00,0.00,0.00,0.00,0.00,0.00,0.00,0.00,0.00,0.00,0.00,0.00,0.00,0.00,0.00,0.00,0.00,0.00,0.00,0.00,0.00
0.00,0.00,0.00,0.00,0.00,0.00,0.00,0.00,0.00,0.00,0.00,0.00,0.00,0.00,0.00,0.00,0.00,0.00,0.00,0.00,0.00,0.00,0.00,0.00,0.00,0.00,0.00,0.00,0.00,0.00,0.00,0.00,0.00,0.00,0.00,0.00,0.00,0.00,0.00,0.00,0.00,0.00,0.00,0.00,0.00,0.00,0.00,0.00,0.00,0.00,0.00,0.00,0.00,0.00,1578.14,1588.24,1598.10,1605.86,1609.63,1611.14,1610.01,1608.75,1610.14,1610.99,1614.28,1612.70,1613.72,1613.62,1615.71,1615.84,1616.14,1615.25,1614.42,1612.76,1613.18,1614.81,1615.95,1615.92,1615.03,1615.38,1615.95,1618.02,1619.81,1621.36,1619.95,1618.64,1619.14,1618.44,1618.94,1617.26,1619.57,1619.68,1621.64,1620.93,1622.52,1624.03,1625.14,1623.84,1623.20,1622.62,1623.90,1623.32,1624.42,1623.62,1625.00,1625.23,1626.51,1627.07,1627.84,1627.43,1626.53,1627.52,1628.27,1630.13,1629.45,1629.65,1629.18,1629.07,1630.02,1630.90,1631.32,1630.84,1631.47,1631.61,1632.84,1632.15,1634.67,1634.29,1634.59,1634.08,1634.62,1635.54,1637.13,1637.95,1639.05,1637.39,1637.41,1636.35,1638.32,1638.52,1640.87,1640.68,1640.46,1639.43,1638.46,1638.95,1640.12,1640.92,1641.92,1641.77,1643.25,1644.05,1643.78,1642.90,1643.28,1643.55,1644.16,1644.26,1645.85,1645.66,1645.25,1645.12,1646.07,1646.80,1647.67,1648.63,1649.19,1650.23,1650.58,1650.69,1650.12,1650.68,1653.38,1654.28,1653.58,1652.03,1652.35,1653.45,1653.03,1653.88,1653.96,1655.59,1656.04,1655.90,1655.24,1654.43,1655.64,1654.95,1655.30,1654.49,1656.09,1656.40,1657.10,1657.37,1659.79,1661.51,1661.77,1660.42,1659.91,1659.43,1658.98,1659.62,1661.05,1663.55,1663.99,1665.80,1666.24,1665.76,1665.58,1664.93,1666.70,1666.52,1667.04,1666.14,1666.65,1667.68,1668.82,1667.36,1667.48,1667.93,1669.68,1668.55,1668.39,1669.10,1670.20,1669.85,1669.24,1670.05,1671.07,1672.39,1673.23,1674.60,1674.24,1675.09,1675.23,1675.68,1673.73,1673.34,1673.25,1674.11,1674.25,1674.83,1676.70,1677.24,1678.38,1681.50,1683.52,1686.51,1688.27,0.00,0.00,0.00,0.00,0.00,0.00,0.00,0.00,0.00,0.00,677.77,674.77,671.75,0.00,0.00,1730.12,1715.42,1709.87,1724.22,652.02,681.50,688.95,689.44,689.39,688.30,686.52,683.59,680.57,680.18,678.55,677.52,674.41,671.05,658.76,648.57,644.47,641.90,640.76,640.88,643.18,645.47,648.60,652.37,655.92,658.38,660.13,659.20,656.41,655.82,656.98,659.89,662.37,665.94,665.97,663.71,662.57,662.88,662.21,659.97,660.53,659.66,658.84,656.67,656.91,657.15,657.71,657.90,657.65,654.66,653.94,654.59,654.87,655.18,654.79,656.12,657.00,658.54,659.51,659.06,659.37,660.42,661.41,662.44,664.52,666.99,669.50,671.25,672.67,673.45,673.90,676.16,676.63,676.72,677.64,682.95,691.75,699.25,700.04,700.76,701.57,703.22,705.45,705.40,705.44,704.37,703.92,703.28,702.33,700.14,696.53,686.72,678.65,667.54,650.19,0.00,0.00,0.00,0.00,0.00,0.00,0.00,0.00,0.00,0.00,0.00,0.00,0.00,0.00,0.00,0.00,0.00,0.00,0.00,0.00,0.00,0.00,0.00,0.00,0.00,0.00,0.00,0.00,0.00,0.00,0.00,0.00,0.00,0.00,0.00,0.00,0.00,0.00,0.00,0.00,0.00,0.00,0.00,0.00,0.00,0.00,0.00,0.00,0.00,0.00,0.00,0.00,0.00,0.00,0.00,0.00,0.00,0.00,0.00,0.00,0.00,0.00,0.00,0.00,0.00,0.00,0.00,0.00,0.00,0.00,0.00,0.00,0.00,0.00,0.00,0.00,0.00,0.00,0.00,0.00,0.00,0.00,0.00,0.00,0.00,0.00,0.00,0.00,0.00,0.00,0.00,0.00,0.00,0.00,0.00,0.00,0.00,0.00,0.00,0.00,0.00,0.00,0.00,0.00,0.00,0.00,0.00,0.00,0.00,0.00,0.00,0.00,0.00,0.00,0.00,0.00,0.00,0.00,0.00,0.00,0.00,0.00,0.00,0.00,0.00,0.00,0.00,0.00,0.00,0.00,0.00,0.00
0.00,0.00,0.00,0.00,0.00,0.00,0.00,0.00,0.00,0.00,0.00,0.00,0.00,0.00,0.00,0.00,0.00,0.00,0.00,0.00,0.00,0.00,0.00,0.00,0.00,0.00,0.00,0.00,0.00,0.00,0.00,0.00,0.00,0.00,0.00,0.00,0.00,0.00,0.00,0.00,0.00,0.00,0.00,0.00,0.00,0.00,0.00,0.00,0.00,0.00,0.00,0.00,0.00,0.00,0.00,0.00,0.00,1589.42,1602.69,1608.11,1610.06,1611.22,1613.26,1614.55,1616.37,1616.07,1617.37,1618.32,1618.21,1616.74,1615.97,1617.28,1616.78,1615.80,1615.59,1617.88,1619.03,1618.91,1617.98,1619.03,1619.81,1622.10,1623.95,1624.79,1622.38,1620.78,1622.54,1623.11,1623.72,1622.08,1623.77,1623.44,1625.91,1626.19,1627.43,1626.66,1627.30,1626.86,1627.14,1626.86,1627.05,1627.18,1628.07,1628.29,1629.80,1629.77,1629.80,1630.10,1630.86,1631.49,1629.23,1629.53,1630.27,1632.61,1632.75,1632.90,1632.63,1633.45,1634.80,1636.24,1635.59,1634.68,1635.05,1636.12,1637.87,1637.65,1639.26,1639.08,1639.65,1639.27,1639.72,1640.46,1642.38,1642.65,1643.27,1642.39,1642.80,1641.42,1641.89,1642.35,1643.88,1643.98,1642.93,1643.53,1642.86,1644.80,1643.87,1644.67,1644.70,1646.02,1646.58,1647.59,1647.41,1647.36,1648.21,1648.30,1648.42,1648.34,1649.79,1650.82,1649.91,1649.78,1649.67,1651.03,1652.59,1653.79,1654.98,1654.82,1654.36,1653.06,1652.89,1653.86,1657.95,1658.47,1657.97,1655.20,1655.96,1657.90,1659.07,1660.20,1658.85,1659.19,1658.86,1659.59,1658.30,1658.13,1658.44,1659.03,1659.90,1659.51,1660.37,1660.82,1662.60,1662.66,1662.69,1663.08,1665.30,1666.27,1665.86,1664.47,1664.20,1664.78,1665.98,1667.73,1667.72,1668.76,1668.91,1668.92,1669.32,1669.75,1671.28,1669.99,1668.78,1668.25,1669.23,1671.28,1672.72,1671.09,1671.19,1670.76,1672.77,1671.46,1671.95,1671.92,1672.98,1673.11,1674.65,1675.26,1676.19,1676.34,1678.52,1678.95,1678.85,1678.55,1679.05,1679.87,1679.39,1678.83,1678.61,1679.55,1680.67,1680.52,1680.08,1679.69,1681.11,1683.78,1686.05,1687.69,1688.74,1699.05,0.00,0.00,0.00,0.00,0.00,0.00,0.00,0.00,0.00,683.47,681.57,678.98,0.00,0.00,1749.21,1726.48,1716.32,1715.37,613.34,683.45,689.95,690.82,692.13,691.12,690.31,688.05,686.44,686.26,683.98,682.35,677.38,671.61,657.61,650.66,647.47,645.17,643.52,643.17,643.99,645.69,647.39,651.50,655.02,658.94,661.65,661.15,659.61,658.76,658.86,660.85,662.75,666.59,666.83,666.51,665.58,665.60,664.52,661.78,661.18,660.79,661.45,660.47,660.06,659.57,660.64,660.67,660.81,656.58,655.58,655.81,656.70,656.49,656.05,656.91,657.55,659.04,659.59,660.49,660.81,661.42,662.12,663.62,666.07,669.80,672.88,676.12,676.31,677.94,678.57,680.79,680.24,679.88,680.01,684.79,694.43,700.44,701.25,700.43,701.52,702.46,705.89,707.31,707.85,707.23,706.39,706.24,704.57,702.15,698.72,692.90,686.18,672.07,651.21,0.00,0.00,0.00,0.00,0.00,0.00,0.00,0.00,0.00,0.00,0.00,0.00,0.00,0.00,0.00,0.00,0.00,0.00,0.00,0.00,0.00,0.00,0.00,0.00,0.00,0.00,0.00,0.00,0.00,0.00,0.00,0.00,0.00,0.00,0.00,0.00,0.00,0.00,0.00,0.00,0.00,0.00,0.00,0.00,0.00,0.00,0.00,0.00,0.00,0.00,0.00,0.00,0.00,0.00,0.00,0.00,0.00,0.00,0.00,0.00,0.00,0.00,0.00,0.00,0.00,0.00,0.00,0.00,0.00,0.00,0.00,0.00,0.00,0.00,0.00,0.00,0.00,0.00,0.00,0.00,0.00,0.00,0.00,0.00,0.00,0.00,0.00,0.00,0.00,0.00,0.00,0.00,0.00,0.00,0.00,0.00,0.00,0.00,0.00,0.00,0.00,0.00,0.00,0.00,0.00,0.00,0.00,0.00,0.00,0.00,0.00,0.00,0.00,0.00,0.00,0.00,0.00,0.00,0.00,0.00,0.00,0.00,0.00,0.00,0.00,0.00,0.00,0.00,0.00,0.00,0.00,0.00
0.00,0.00,0.00,0.00,0.00,0.00,0.00,0.00,0.00,0.00,0.00,0.00,0.00,0.00,0.00,0.00,0.00,0.00,0.00,0.00,0.00,0.00,0.00,0.00,0.00,0.00,0.00,0.00,0.00,0.00,0.00,0.00,0.00,0.00,0.00,0.00,0.00,0.00,0.00,0.00,0.00,0.00,0.00,0.00,0.00,0.00,0.00,0.00,0.00,0.00,0.00,0.00,0.00,0.00,0.00,0.00,0.00,0.00,0.00,1589.94,1598.46,1604.55,1610.82,1613.32,1616.66,1616.52,1618.46,1618.25,1618.91,1616.75,1617.05,1618.26,1619.20,1617.59,1617.15,1618.17,1619.44,1620.01,1620.02,1620.51,1621.00,1622.67,1626.00,1625.67,1623.53,1622.01,1624.70,1625.22,1626.10,1624.14,1625.37,1623.99,1626.72,1627.15,1628.43,1626.60,1626.79,1625.35,1625.80,1625.17,1626.77,1626.32,1627.93,1628.98,1631.63,1630.78,1630.00,1629.03,1630.57,1631.39,1630.78,1630.78,1632.73,1633.82,1634.34,1633.82,1633.56,1633.94,1634.40,1635.95,1635.79,1635.83,1636.51,1638.30,1638.82,1638.59,1639.68,1640.51,1641.52,1640.76,1641.21,1641.79,1643.44,1643.25,1644.27,1643.41,1644.57,1643.05,1643.63,1643.99,1644.92,1645.03,1644.29,1644.62,1643.98,1645.52,1644.99,1645.41,1645.44,1647.24,1647.29,1648.25,1647.77,1648.20,1648.54,1648.97,1649.54,1649.17,1650.62,1651.62,1651.48,1651.31,1651.09,1651.75,1652.65,1654.46,1656.02,1655.49,1654.04,1652.29,1652.01,1654.03,1657.48,1658.68,1658.08,1657.01,1657.60,1658.71,1659.72,1660.68,1659.03,1659.39,1659.13,1660.47,1658.85,1659.13,1658.97,1660.61,1661.46,1662.39,1662.36,1662.72,1663.93,1664.70,1664.31,1663.99,1665.73,1667.34,1667.32,1665.56,1664.14,1664.53,1665.63,1666.95,1667.13,1667.99,1669.61,1670.76,1671.38,1671.24,1671.28,1671.62,1671.04,1671.79,1671.46,1673.65,1674.62,1673.32,1673.01,1671.96,1674.34,1673.05,1673.96,1674.23,1675.35,1675.79,1675.94,1675.81,1676.25,1677.13,1679.88,1680.43,1680.23,1679.13,1679.26,1680.23,1680.99,1681.04,1680.38,1681.33,1681.51,1681.35,1679.36,1679.80,1681.64,1684.98,1687.14,1689.28,1689.37,1691.28,0.00,0.00,0.00,0.00,0.00,0.00,0.00,0.00,0.00,681.62,684.41,681.84,667.87,0.00,1767.39,1732.45,1715.44,1709.85,0.00,0.00,686.18,688.75,690.46,690.18,689.97,688.48,687.71,686.82,684.15,682.17,676.72,665.55,650.76,645.56,643.71,641.91,640.92,640.88,642.84,643.60,644.90,645.94,649.90,653.95,657.38,656.85,656.99,656.62,657.12,657.87,659.50,661.94,661.91,662.14,660.43,660.54,660.46,658.50,657.66,656.73,659.12,658.89,658.96,657.68,658.77,657.89,657.69,654.07,653.46,653.23,654.25,653.02,653.28,654.02,656.59,657.26,658.24,658.26,659.59,660.13,661.57,663.49,665.38,668.88,671.08,674.67,675.05,676.41,676.90,677.99,679.28,679.90,681.74,686.39,693.53,695.79,696.17,695.30,695.78,696.24,698.30,701.77,704.19,706.08,705.98,706.43,704.80,701.90,696.47,691.25,685.32,672.29,648.10,0.00,0.00,0.00,0.00,0.00,0.00,0.00,0.00,0.00,0.00,0.00,0.00,0.00,0.00,0.00,0.00,0.00,0.00,0.00,0.00,0.00,0.00,0.00,0.00,0.00,0.00,0.00,0.00,0.00,0.00,0.00,0.00,0.00,0.00,0.00,0.00,0.00,0.00,0.00,0.00,0.00,0.00,0.00,0.00,0.00,0.00,0.00,0.00,0.00,0.00,0.00,0.00,0.00,0.00,0.00,0.00,0.00,0.00,0.00,0.00,0.00,0.00,0.00,0.00,0.00,0.00,0.00,0.00,0.00,0.00,0.00,0.00,0.00,0.00,0.00,0.00,0.00,0.00,0.00,0.00,0.00,0.00,0.00,0.00,0.00,0.00,0.00,0.00,0.00,0.00,0.00,0.00,0.00,0.00,0.00,0.00,0.00,0.00,0.00,0.00,0.00,0.00,0.00,0.00,0.00,0.00,0.00,0.00,0.00,0.00,0.00,0.00,0.00,0.00,0.00,0.00,0.00,0.00,0.00,0.00,0.00,0.00,0.00,0.00,0.00,0.00,0.00,0.00,0.00,0.00,0.00,0.00
0.00,0.00,0.00,0.00,0.00,0.00,0.00,0.00,0.00,0.00,0.00,0.00,0.00,0.00,0.00,0.00,0.00,0.00,0.00,0.00,0.00,0.00,0.00,0.00,0.00,0.00,0.00,0.00,0.00,0.00,0.00,0.00,0.00,0.00,0.00,0.00,0.00,0.00,0.00,0.00,0.00,0.00,0.00,0.00,0.00,0.00,0.00,0.00,0.00,0.00,0.00,0.00,0.00,0.00,0.00,0.00,0.00,0.00,0.00,0.00,0.00,1588.53,1601.03,1609.86,1615.98,1618.51,1621.23,1621.32,1622.48,1620.17,1620.31,1621.39,1622.19,1622.06,1622.14,1624.05,1623.35,1623.08,1622.75,1624.20,1625.42,1627.04,1629.57,1629.29,1628.17,1627.31,1628.23,1628.42,1627.93,1627.18,1627.56,1628.18,1630.75,1631.65,1631.95,1629.32,1628.90,1628.33,1629.08,1629.35,1630.12,1631.04,1633.20,1634.70,1635.78,1634.38,1633.47,1633.51,1633.98,1635.38,1634.67,1635.21,1635.95,1636.84,1637.80,1637.19,1637.04,1637.23,1638.14,1639.33,1639.77,1640.81,1641.69,1643.27,1642.90,1642.75,1642.78,1644.68,1646.06,1645.44,1644.66,1644.77,1645.16,1646.01,1647.39,1647.56,1647.99,1646.33,1646.51,1646.81,1647.36,1647.70,1647.24,1647.95,1648.47,1650.01,1649.71,1649.80,1649.42,1650.92,1650.56,1651.44,1651.66,1652.49,1652.83,1653.21,1654.51,1654.30,1655.02,1655.71,1655.71,1655.80,1655.13,1656.02,1656.48,1657.88,1658.86,1658.20,1657.07,1656.32,1656.54,1659.00,1660.80,1661.16,1659.61,1659.61,1661.71,1662.68,1663.55,1664.04,1663.86,1664.11,1662.79,1663.49,1662.05,1663.36,1663.35,1665.23,1666.85,1666.88,1666.93,1666.29,1668.54,1669.41,1669.53,1668.33,1668.29,1669.01,1669.86,1670.11,1669.09,1669.20,1670.06,1670.72,1671.07,1671.60,1673.50,1674.58,1675.83,1676.94,1676.39,1675.98,1673.14,1673.39,1673.61,1676.38,1677.18,1675.95,1677.17,1676.67,1678.04,1676.14,1677.30,1677.08,1678.34,1678.82,1680.03,1679.91,1681.06,1681.60,1683.39,1682.96,1683.41,1682.76,1682.23,1683.62,1685.11,1686.32,1685.42,1685.39,1685.25,1684.59,1683.40,1683.76,1685.00,1687.58,1688.90,1690.51,1689.73,1693.91,1703.47,0.00,0.00,0.00,0.00,0.00,0.00,0.00,0.00,675.85,689.86,685.41,678.30,0.00,0.00,1740.65,1721.28,1715.10,1713.19,0.00,685.98,692.53,693.99,693.34,693.29,692.38,692.89,690.58,688.65,686.17,677.78,658.98,645.74,643.25,641.97,642.23,642.66,645.30,647.14,648.74,648.15,647.63,649.34,653.96,658.66,660.03,661.48,660.09,660.29,660.15,661.89,663.42,662.70,662.83,660.09,661.04,661.30,661.61,660.41,659.91,661.19,661.35,661.07,661.31,661.64,660.08,658.35,656.26,655.38,655.62,656.92,657.24,657.56,658.20,660.21,660.41,660.60,661.18,662.35,664.08,665.87,667.21,667.74,670.15,673.95,677.51,678.98,679.24,679.72,680.29,683.40,684.75,688.21,691.90,696.48,695.35,695.34,693.09,693.70,694.01,695.64,699.41,704.08,709.00,709.05,708.42,705.83,702.99,697.54,694.24,688.12,674.97,648.69,0.00,0.00,0.00,0.00,0.00,0.00,0.00,0.00,0.00,0.00,0.00,0.00,0.00,0.00,0.00,0.00,0.00,0.00,0.00,0.00,0.00,0.00,0.00,0.00,0.00,0.00,0.00,0.00,0.00,0.00,0.00,0.00,0.00,0.00,0.00,0.00,0.00,0.00,0.00,0.00,0.00,0.00,0.00,0.00,0.00,0.00,0.00,0.00,0.00,0.00,0.00,0.00,0.00,0.00,0.00,0.00,0.00,0.00,0.00,0.00,0.00,0.00,0.00,0.00,0.00,0.00,0.00,0.00,0.00,0.00,0.00,0.00,0.00,0.00,0.00,0.00,0.00,0.00,0.00,0.00,0.00,0.00,0.00,0.00,0.00,0.00,0.00,0.00,0.00,0.00,0.00,0.00,0.00,0.00,0.00,0.00,0.00,0.00,0.00,0.00,0.00,0.00,0.00,0.00,0.00,0.00,0.00,0.00,0.00,0.00,0.00,0.00,0.00,0.00,0.00,0.00,0.00,0.00,0.00,0.00,0.00,0.00,0.00,0.00,0.00,0.00,0.00,0.00,0.00,0.00,0.00,0.00
0.00,0.00,0.00,0.00,0.00,0.00,0.00,0.00,0.00,0.00,0.00,0.00,0.00,0.00,0.00,0.00,0.00,0.00,0.00,0.00,0.00,0.00,0.00,0.00,0.00,0.00,0.00,0.00,0.00,0.00,0.00,0.00,0.00,0.00,0.00,0.00,0.00,0.00,0.00,0.00,0.00,0.00,0.00,0.00,0.00,0.00,0.00,0.00,0.00,0.00,0.00,0.00,0.00,0.00,0.00,0.00,0.00,0.00,0.00,0.00,0.00,0.00,0.00,1591.86,1602.44,1609.87,1616.64,1619.80,1622.60,1621.32,1621.82,1620.77,1622.13,1622.59,1624.23,1624.09,1623.26,1623.85,1623.78,1625.39,1627.26,1627.60,1629.73,1629.06,1629.94,1629.23,1630.26,1630.61,1630.11,1627.87,1627.71,1627.84,1629.92,1630.33,1631.60,1630.77,1630.34,1628.50,1629.38,1629.79,1631.96,1632.22,1634.98,1636.06,1637.10,1636.24,1635.81,1634.95,1633.67,1634.59,1635.58,1637.94,1638.41,1638.65,1638.93,1638.58,1638.57,1637.93,1638.31,1638.83,1639.74,1641.34,1642.03,1643.52,1642.87,1643.72,1643.25,1644.50,1645.19,1645.96,1645.95,1645.79,1645.43,1646.22,1647.95,1647.92,1647.95,1646.89,1647.06,1647.70,1648.30,1649.10,1648.37,1648.13,1648.15,1649.68,1651.52,1651.34,1651.51,1651.74,1652.34,1653.03,1653.18,1653.88,1653.34,1653.89,1654.42,1654.85,1654.41,1654.45,1654.25,1655.31,1655.72,1657.49,1658.21,1659.24,1659.31,1658.53,1658.87,1658.37,1659.10,1660.54,1661.86,1661.38,1660.18,1660.32,1662.29,1663.60,1663.93,1663.93,1662.93,1664.63,1664.02,1665.04,1663.09,1664.86,1665.51,1667.64,1668.96,1668.70,1668.50,1667.57,1669.48,1670.21,1670.68,1670.74,1669.52,1669.81,1670.30,1671.22,1669.21,1669.12,1669.11,1671.32,1671.33,1674.03,1675.55,1676.48,1676.14,1676.58,1676.35,1677.85,1676.58,1676.58,1675.85,1677.11,1677.79,1677.31,1678.75,1678.64,1679.17,1678.01,1679.55,1680.28,1681.68,1680.52,1680.43,1679.62,1681.88,1682.61,1683.80,1683.05,1682.52,1683.03,1682.57,1684.33,1684.22,1685.64,1685.32,1685.68,1685.65,1685.16,1685.53,1685.78,1687.15,1688.98,1690.15,1692.08,1691.07,1694.60,1702.51,0.00,0.00,0.00,0.00,0.00,0.00,0.00,0.00,0.00,686.93,682.48,679.42,0.00,1773.34,1744.89,1727.92,1722.04,1723.01,664.90,684.68,693.44,694.83,694.55,693.67,692.03,690.99,688.24,687.32,683.67,669.11,647.10,638.01,636.29,636.26,637.94,639.26,641.65,643.26,644.85,645.33,644.15,645.88,648.19,653.35,655.27,659.04,658.10,659.36,658.78,660.52,660.70,660.16,659.54,658.41,658.78,658.94,657.99,657.93,656.81,657.98,657.22,658.14,658.81,657.97,655.20,653.87,653.07,653.28,652.80,654.67,655.26,656.08,655.63,657.38,657.50,658.62,659.57,661.16,663.08,665.66,667.37,667.95,668.57,671.59,674.27,676.21,676.93,677.93,678.34,682.74,686.63,691.44,692.74,692.88,692.22,691.86,690.12,688.67,689.14,690.20,693.33,698.82,705.52,708.03,707.25,706.71,703.77,697.48,690.02,682.25,670.66,0.00,0.00,0.00,0.00,0.00,0.00,0.00,0.00,0.00,0.00,0.00,0.00,0.00,0.00,0.00,0.00,0.00,0.00,0.00,0.00,0.00,0.00,0.00,0.00,0.00,0.00,0.00,0.00,0.00,0.00,0.00,0.00,0.00,0.00,0.00,0.00,0.00,0.00,0.00,0.00,0.00,0.00,0.00,0.00,0.00,0.00,0.00,0.00,0.00,0.00,0.00,0.00,0.00,0.00,0.00,0.00,0.00,0.00,0.00,0.00,0.00,0.00,0.00,0.00,0.00,0.00,0.00,0.00,0.00,0.00,0.00,0.00,0.00,0.00,0.00,0.00,0.00,0.00,0.00,0.00,0.00,0.00,0.00,0.00,0.00,0.00,0.00,0.00,0.00,0.00,0.00,0.00,0.00,0.00,0.00,0.00,0.00,0.00,0.00,0.00,0.00,0.00,0.00,0.00,0.00,0.00,0.00,0.00,0.00,0.00,0.00,0.00,0.00,0.00,0.00,0.00,0.00,0.00,0.00,0.00,0.00,0.00,0.00,0.00,0.00,0.00,0.00,0.00,0.00,0.00,0.00,0.00,0.00
0.00,0.00,0.00,0.00,0.00,0.00,0.00,0.00,0.00,0.00,0.00,0.00,0.00,0.00,0.00,0.00,0.00,0.00,0.00,0.00,0.00,0.00,0.00,0.00,0.00,0.00,0.00,0.00,0.00,0.00,0.00,0.00,0.00,0.00,0.00,0.00,0.00,0.00,0.00,0.00,0.00,0.00,0.00,0.00,0.00,0.00,0.00,0.00,0.00,0.00,0.00,0.00,0.00,0.00,0.00,0.00,0.00,0.00,0.00,0.00,0.00,0.00,0.00,0.00,0.00,0.00,1604.23,1614.43,1620.20,1622.56,1623.57,1622.96,1623.72,1626.07,1628.82,1628.93,1627.81,1627.57,1626.94,1628.20,1630.04,1630.42,1630.99,1630.76,1632.36,1633.00,1633.19,1634.16,1633.60,1633.07,1631.76,1633.63,1634.35,1635.77,1635.21,1634.96,1633.60,1632.67,1633.54,1634.40,1635.84,1637.56,1640.09,1640.50,1639.51,1639.08,1639.12,1639.56,1638.22,1640.04,1639.90,1642.58,1641.93,1643.56,1643.59,1643.95,1643.41,1643.49,1644.09,1644.22,1643.78,1644.85,1645.63,1646.94,1646.88,1646.97,1645.83,1646.34,1648.13,1649.49,1650.45,1649.97,1649.56,1650.10,1651.27,1650.77,1649.77,1649.13,1650.00,1651.16,1651.75,1652.23,1650.51,1651.37,1651.72,1654.97,1656.14,1657.61,1657.29,1657.30,1657.50,1657.84,1658.54,1658.95,1658.12,1657.30,1657.35,1658.74,1658.14,1657.89,1657.79,1659.03,1660.02,1661.42,1663.92,1664.20,1663.92,1661.75,1662.67,1661.93,1663.61,1664.42,1665.03,1664.14,1662.74,1663.60,1664.55,1667.38,1668.07,1668.46,1667.16,1668.17,1667.82,1668.64,1667.75,1669.58,1670.61,1672.17,1673.47,1672.03,1671.72,1670.74,1673.39,1674.16,1674.96,1674.53,1674.25,1674.80,1675.66,1676.21,1674.33,1674.48,1674.79,1676.92,1676.73,1679.53,1679.50,1679.14,1677.67,1679.75,1681.08,1681.79,1680.17,1679.30,1679.96,1680.08,1681.03,1680.61,1683.12,1683.78,1683.06,1681.42,1683.07,1684.21,1685.73,1683.62,1683.51,1683.55,1686.84,1687.79,1688.63,1686.85,1686.06,1686.01,1685.99,1687.64,1688.11,1690.13,1690.87,1691.23,1691.35,1690.44,1690.63,1690.26,1690.63,1692.30,1693.90,1696.45,1695.39,1698.30,1701.73,0.00,0.00,0.00,0.00,0.00,0.00,0.00,0.00,0.00,682.14,684.65,680.00,661.09,1775.43,1756.11,1740.62,1732.95,1732.42,656.11,687.52,697.66,700.20,699.64,698.49,696.07,694.55,691.53,689.20,680.57,659.86,644.69,638.86,638.08,637.52,639.62,639.80,641.86,642.11,644.42,645.55,646.13,647.89,649.96,654.20,656.49,660.46,662.06,663.90,663.81,664.26,664.00,663.39,663.24,663.87,663.97,662.45,661.64,661.44,661.11,659.70,659.33,659.06,659.48,657.16,655.64,655.06,655.15,655.38,655.28,656.52,657.92,658.59,659.00,659.39,659.88,660.30,662.41,663.65,665.93,668.30,670.29,671.23,670.74,673.90,676.42,678.51,679.14,680.22,681.80,686.25,692.43,696.45,696.50,695.61,695.17,695.46,692.24,690.13,690.24,693.31,697.26,701.81,706.71,709.19,709.10,708.46,705.21,696.75,687.12,679.28,665.93,0.00,0.00,0.00,0.00,0.00,0.00,0.00,0.00,0.00,0.00,0.00,0.00,0.00,0.00,0.00,0.00,0.00,0.00,0.00,0.00,0.00,0.00,0.00,0.00,0.00,0.00,0.00,0.00,0.00,0.00,0.00,0.00,0.00,0.00,0.00,0.00,0.00,0.00,0.00,0.00,0.00,0.00,0.00,0.00,0.00,0.00,0.00,0.00,0.00,0.00,0.00,0.00,0.00,0.00,0.00,0.00,0.00,0.00,0.00,0.00,0.00,0.00,0.00,0.00,0.00,0.00,0.00,0.00,0.00,0.00,0.00,0.00,0.00,0.00,0.00,0.00,0.00,0.00,0.00,0.00,0.00,0.00,0.00,0.00,0.00,0.00,0.00,0.00,0.00,0.00,0.00,0.00,0.00,0.00,0.00,0.00,0.00,0.00,0.00,0.00,0.00,0.00,0.00,0.00,0.00,0.00,0.00,0.00,0.00,0.00,0.00,0.00,0.00,0.00,0.00,0.00,0.00,0.00,0.00,0.00,0.00,0.00,0.00,0.00,0.00,0.00,0.00,0.00,0.00,0.00,0.00,0.00,0.00
0.00,0.00,0.00,0.00,0.00,0.00,0.00,0.00,0.00,0.00,0.00,0.00,0.00,0.00,0.00,0.00,0.00,0.00,0.00,0.00,0.00,0.00,0.00,0.00,0.00,0.00,0.00,0.00,0.00,0.00,0.00,0.00,0.00,0.00,0.00,0.00,0.00,0.00,0.00,0.00,0.00,0.00,0.00,0.00,0.00,0.00,0.00,0.00,0.00,0.00,0.00,0.00,0.00,0.00,0.00,0.00,0.00,0.00,0.00,0.00,0.00,0.00,0.00,0.00,0.00,0.00,0.00,0.00,1605.99,1614.11,1620.34,1623.09,1625.85,1627.65,1630.11,1630.01,1630.10,1628.82,1628.68,1628.20,1630.85,1629.68,1630.39,1629.39,1632.08,1632.03,1633.30,1633.80,1635.54,1634.66,1634.13,1635.25,1635.82,1636.62,1635.63,1636.05,1634.80,1634.04,1634.14,1634.89,1636.54,1638.25,1641.11,1641.17,1639.94,1638.42,1638.39,1638.76,1638.85,1641.11,1641.57,1643.28,1642.99,1643.52,1643.88,1645.18,1646.75,1647.64,1646.76,1645.39,1643.76,1644.37,1645.19,1646.11,1647.30,1647.94,1647.51,1646.45,1648.48,1649.55,1651.91,1651.08,1651.57,1651.14,1651.91,1651.29,1649.87,1650.46,1652.81,1655.11,1655.44,1654.74,1652.26,1653.00,1652.90,1656.15,1657.45,1658.81,1658.74,1658.30,1658.75,1658.78,1659.33,1659.54,1658.90,1658.35,1657.49,1659.29,1658.80,1659.49,1659.35,1660.05,1661.37,1662.01,1664.56,1664.76,1664.92,1663.32,1663.87,1663.83,1666.02,1666.71,1666.23,1664.30,1663.06,1664.56,1665.70,1668.27,1668.73,1669.39,1668.35,1669.32,1669.58,1671.03,1671.23,1672.36,1672.58,1673.03,1673.35,1673.56,1673.04,1672.64,1673.86,1674.78,1674.56,1674.92,1675.90,1678.04,1677.89,1677.55,1676.18,1676.72,1676.73,1678.16,1677.26,1680.37,1680.73,1680.57,1678.05,1678.88,1681.32,1682.54,1683.68,1682.20,1683.47,1681.80,1683.49,1682.49,1684.51,1684.21,1684.50,1683.77,1685.30,1686.00,1686.53,1685.31,1684.99,1684.78,1686.61,1687.66,1688.66,1687.91,1686.82,1687.57,1688.33,1689.28,1689.11,1691.34,1693.12,1693.42,1692.30,1691.56,1692.27,1692.30,1692.78,1694.07,1696.34,1699.09,1699.28,1699.32,1699.36,1703.71,0.00,0.00,0.00,0.00,0.00,0.00,0.00,0.00,0.00,680.73,679.28,670.52,0.00,1760.93,1748.90,1739.49,1738.62,658.74,688.21,696.97,699.08,698.97,696.82,694.57,692.41,690.53,684.51,666.09,647.86,638.17,634.54,633.35,633.38,635.57,636.12,636.80,637.26,639.22,642.08,643.03,645.38,645.86,649.30,651.18,655.17,657.14,658.98,659.05,660.22,660.81,662.33,662.82,663.72,662.20,660.62,658.42,658.45,657.11,656.20,655.06,655.33,655.03,653.70,652.36,652.47,652.36,653.27,653.18,654.71,654.59,655.24,656.04,657.51,659.08,659.88,662.15,663.10,664.29,666.83,669.08,670.83,670.94,672.26,674.53,675.82,677.79,678.60,680.31,685.90,693.56,696.50,696.44,695.37,694.80,692.33,690.92,689.26,691.56,693.83,698.70,700.66,703.41,706.22,707.60,708.08,702.82,691.92,679.04,670.13,654.47,0.00,0.00,0.00,0.00,0.00,0.00,0.00,0.00,0.00,0.00,0.00,0.00,0.00,0.00,0.00,0.00,0.00,0.00,0.00,0.00,0.00,0.00,0.00,0.00,0.00,0.00,0.00,0.00,0.00,0.00,0.00,0.00,0.00,0.00,0.00,0.00,0.00,0.00,0.00,0.00,0.00,0.00,0.00,0.00,0.00,0.00,0.00,0.00,0.00,0.00,0.00,0.00,0.00,0.00,0.00,0.00,0.00,0.00,0.00,0.00,0.00,0.00,0.00,0.00,0.00,0.00,0.00,0.00,0.00,0.00,0.00,0.00,0.00,0.00,0.00,0.00,0.00,0.00,0.00,0.00,0.00,0.00,0.00,0.00,0.00,0.00,0.00,0.00,0.00,0.00,0.00,0.00,0.00,0.00,0.00,0.00,0.00,0.00,0.00,0.00,0.00,0.00,0.00,0.00,0.00,0.00,0.00,0.00,0.00,0.00,0.00,0.00,0.00,0.00,0.00,0.00,0.00,0.00,0.00,0.00,0.00,0.00,0.00,0.00,0.00,0.00,0.00,0.00,0.00,0.00,0.00,0.00,0.00
0.00,0.00,0.00,0.00,0.00,0.00,0.00,0.00,0.00,0.00,0.00,0.00,0.00,0.00,0.00,0.00,0.00,0.00,0.00,0.00,0.00,0.00,0.00,0.00,0.00,0.00,0.00,0.00,0.00,0.00,0.00,0.00,0.00,0.00,0.00,0.00,0.00,0.00,0.00,0.00,0.00,0.00,0.00,0.00,0.00,0.00,0.00,0.00,0.00,0.00,0.00,0.00,0.00,0.00,0.00,0.00,0.00,0.00,0.00,0.00,0.00,0.00,0.00,0.00,0.00,0.00,0.00,0.00,0.00,0.00,1609.04,1619.75,1625.93,1630.22,1632.73,1635.11,1634.66,1633.48,1633.01,1633.05,1633.90,1632.42,1631.06,1631.49,1633.89,1636.26,1636.66,1637.37,1637.84,1638.54,1638.19,1639.73,1639.87,1641.68,1640.37,1639.96,1638.23,1638.58,1638.03,1638.90,1639.31,1642.58,1644.59,1645.10,1642.92,1641.62,1641.95,1643.64,1644.67,1646.73,1645.42,1646.46,1647.14,1648.79,1649.00,1649.68,1650.83,1652.07,1651.19,1650.84,1648.85,1649.75,1649.39,1650.31,1651.20,1651.85,1652.98,1651.88,1654.80,1654.47,1656.43,1655.67,1656.04,1656.29,1655.38,1655.08,1653.51,1655.16,1657.71,1660.07,1660.24,1659.09,1657.23,1657.81,1658.32,1661.05,1661.63,1662.68,1662.13,1662.67,1663.37,1663.30,1663.32,1662.89,1662.91,1662.08,1661.85,1662.98,1663.04,1663.72,1664.38,1664.89,1666.14,1666.16,1668.41,1668.17,1668.55,1666.94,1667.54,1667.94,1670.81,1671.50,1670.78,1668.51,1667.37,1668.82,1670.59,1672.43,1673.06,1673.64,1674.10,1674.29,1674.47,1674.87,1677.97,1678.31,1678.39,1676.06,1676.81,1677.13,1677.54,1676.83,1677.53,1677.43,1677.89,1677.42,1679.47,1680.98,1681.28,1681.05,1681.07,1682.69,1683.24,1682.94,1682.26,1683.60,1685.32,1685.17,1683.54,1684.21,1685.55,1686.07,1686.60,1686.53,1688.65,1687.34,1687.77,1685.37,1687.75,1687.43,1688.44,1687.27,1688.52,1688.81,1689.17,1689.03,1689.91,1690.69,1692.12,1692.96,1692.95,1692.25,1692.53,1693.11,1694.13,1693.94,1694.16,1695.59,1697.00,1697.56,1696.52,1695.98,1696.26,1697.25,1697.48,1697.62,1698.67,1700.97,1703.50,1702.27,1703.31,1704.07,0.00,0.00,0.00,0.00,0.00,0.00,0.00,0.00,0.00,667.39,680.82,678.75,0.00,1772.98,1761.81,1754.48,1748.89,665.56,692.41,701.16,701.65,701.48,698.75,697.20,694.41,691.31,678.03,655.99,645.44,640.01,638.13,636.34,636.23,637.82,637.19,637.69,638.07,640.87,642.95,644.36,646.27,649.03,651.71,654.31,655.56,657.90,659.89,660.77,660.51,659.88,660.87,662.15,663.08,662.70,661.48,660.09,658.48,657.12,655.59,655.68,655.18,655.20,654.61,655.22,655.95,656.14,656.59,656.38,657.17,657.60,659.41,661.37,661.57,662.79,663.44,665.70,665.18,666.00,668.53,671.57,673.26,674.51,675.29,676.70,677.87,679.55,680.01,681.67,687.93,697.32,701.11,702.75,701.85,700.42,696.98,696.27,695.77,698.66,700.16,705.05,706.09,708.93,709.93,710.80,709.18,701.48,689.20,676.60,668.62,648.54,0.00,0.00,0.00,0.00,0.00,0.00,0.00,0.00,0.00,0.00,0.00,0.00,0.00,0.00,0.00,0.00,0.00,0.00,0.00,0.00,0.00,0.00,0.00,0.00,0.00,0.00,0.00,0.00,0.00,0.00,0.00,0.00,0.00,0.00,0.00,0.00,0.00,0.00,0.00,0.00,0.00,0.00,0.00,0.00,0.00,0.00,0.00,0.00,0.00,0.00,0.00,0.00,0.00,0.00,0.00,0.00,0.00,0.00,0.00,0.00,0.00,0.00,0.00,0.00,0.00,0.00,0.00,0.00,0.00,0.00,0.00,0.00,0.00,0.00,0.00,0.00,0.00,0.00,0.00,0.00,0.00,0.00,0.00,0.00,0.00,0.00,0.00,0.00,0.00,0.00,0.00,0.00,0.00,0.00,0.00,0.00,0.00,0.00,0.00,0.00,0.00,0.00,0.00,0.00,0.00,0.00,0.00,0.00,0.00,0.00,0.00,0.00,0.00,0.00,0.00,0.00,0.00,0.00,0.00,0.00,0.00,0.00,0.00,0.00,0.00,0.00,0.00,0.00,0.00,0.00,0.00,0.00,0.00
0.00,0.00,0.00,0.00,0.00,0.00,0.00,0.00,0.00,0.00,0.00,0.00,0.00,0.00,0.00,0.00,0.00,0.00,0.00,0.00,0.00,0.00,0.00,0.00,0.00,0.00,0.00,0.00,0.00,0.00,0.00,0.00,0.00,0.00,0.00,0.00,0.00,0.00,0.00,0.00,0.00,0.00,0.00,0.00,0.00,0.00,0.00,0.00,0.00,0.00,0.00,0.00,0.00,0.00,0.00,0.00,0.00,0.00,0.00,0.00,0.00,0.00,0.00,0.00,0.00,0.00,0.00,0.00,0.00,0.00,0.00,0.00,1614.10,1621.36,1628.17,1632.74,1634.20,1634.17,1635.44,1635.86,1636.46,1634.19,1632.68,1633.03,1635.18,1637.16,1637.97,1637.39,1638.26,1637.46,1638.79,1638.27,1639.44,1639.76,1640.81,1640.45,1640.59,1641.42,1641.06,1640.86,1640.74,1642.91,1645.67,1645.82,1645.07,1643.88,1645.16,1645.50,1646.05,1646.38,1645.72,1645.76,1646.44,1647.67,1648.88,1650.41,1651.68,1651.67,1651.05,1651.10,1650.09,1650.60,1649.69,1650.13,1651.12,1652.62,1654.21,1652.83,1655.19,1655.13,1656.50,1655.12,1655.59,1655.42,1655.05,1654.83,1655.17,1657.42,1660.27,1661.97,1661.07,1659.93,1658.95,1658.86,1658.72,1660.85,1662.21,1662.61,1661.89,1663.33,1663.95,1663.84,1663.05,1663.02,1663.54,1664.02,1663.83,1664.31,1664.40,1665.74,1666.23,1666.78,1667.26,1667.62,1667.85,1668.85,1669.77,1669.30,1669.36,1670.23,1672.59,1672.49,1671.73,1670.46,1670.51,1671.31,1673.12,1673.66,1674.38,1675.17,1676.06,1677.08,1677.08,1676.49,1678.39,1679.18,1680.36,1677.74,1677.14,1676.69,1677.19,1678.01,1678.78,1678.48,1677.78,1678.36,1680.13,1682.16,1681.89,1682.94,1683.00,1684.63,1684.35,1684.33,1683.95,1684.71,1686.17,1686.45,1684.98,1685.04,1685.33,1686.83,1687.61,1688.91,1690.37,1689.38,1690.26,1688.07,1689.52,1688.05,1689.44,1689.25,1689.90,1689.77,1689.96,1691.15,1693.75,1694.46,1695.41,1694.45,1694.25,1694.15,1694.39,1695.55,1696.32,1696.78,1696.13,1695.68,1695.61,1696.91,1697.42,1698.07,1697.15,1698.91,1699.90,1699.85,1698.15,1699.76,1704.32,1705.84,1706.64,1707.11,1712.01,0.00,0.00,0.00,0.00,0.00,0.00,0.00,0.00,0.00,667.92,673.69,671.62,629.04,1778.84,1765.84,0.00,668.78,693.52,699.59,699.95,698.94,697.26,694.98,692.03,685.16,667.81,648.88,641.93,636.59,634.83,633.20,634.19,635.14,635.33,636.22,637.86,641.03,642.16,642.58,642.34,643.81,647.29,651.07,653.99,654.34,654.71,653.61,654.08,653.32,655.19,655.18,656.26,655.82,656.76,656.21,655.55,653.76,652.29,651.80,651.85,651.80,652.14,653.19,655.07,655.71,656.55,655.76,656.56,656.72,659.58,660.87,660.38,660.66,661.30,663.34,663.88,663.73,666.13,667.66,670.97,672.91,674.13,674.68,676.12,678.34,679.01,679.49,686.62,695.83,700.44,702.34,702.41,700.93,696.93,697.66,697.78,701.63,701.17,705.05,705.70,708.33,709.95,710.27,708.57,698.26,683.21,670.54,663.34,0.00,0.00,0.00,0.00,0.00,0.00,0.00,0.00,0.00,0.00,0.00,0.00,0.00,0.00,0.00,0.00,0.00,0.00,0.00,0.00,0.00,0.00,0.00,0.00,0.00,0.00,0.00,0.00,0.00,0.00,0.00,0.00,0.00,0.00,0.00,0.00,0.00,0.00,0.00,0.00,0.00,0.00,0.00,0.00,0.00,0.00,0.00,0.00,0.00,0.00,0.00,0.00,0.00,0.00,0.00,0.00,0.00,0.00,0.00,0.00,0.00,0.00,0.00,0.00,0.00,0.00,0.00,0.00,0.00,0.00,0.00,0.00,0.00,0.00,0.00,0.00,0.00,0.00,0.00,0.00,0.00,0.00,0.00,0.00,0.00,0.00,0.00,0.00,0.00,0.00,0.00,0.00,0.00,0.00,0.00,0.00,0.00,0.00,0.00,0.00,0.00,0.00,0.00,0.00,0.00,0.00,0.00,0.00,0.00,0.00,0.00,0.00,0.00,0.00,0.00,0.00,0.00,0.00,0.00,0.00,0.00,0.00,0.00,0.00,0.00,0.00,0.00,0.00,0.00,0.00,0.00,0.00,0.00,0.00
0.00,0.00,0.00,0.00,0.00,0.00,0.00,0.00,0.00,0.00,0.00,0.00,0.00,0.00,0.00,0.00,0.00,0.00,0.00,0.00,0.00,0.00,0.00,0.00,0.00,0.00,0.00,0.00,0.00,0.00,0.00,0.00,0.00,0.00,0.00,0.00,0.00,0.00,0.00,0.00,0.00,0.00,0.00,0.00,0.00,0.00,0.00,0.00,0.00,0.00,0.00,0.00,0.00,0.00,0.00,0.00,0.00,0.00,0.00,0.00,0.00,0.00,0.00,0.00,0.00,0.00,0.00,0.00,0.00,0.00,0.00,0.00,0.00,0.00,1614.78,1625.59,1630.93,1635.30,1637.19,1638.98,1638.85,1639.15,1637.98,1638.84,1640.04,1642.37,1642.68,1641.71,1641.71,1641.47,1642.05,1640.91,1641.21,1641.46,1643.11,1643.74,1644.48,1645.75,1645.72,1646.34,1645.50,1646.73,1647.78,1648.40,1648.56,1648.46,1649.39,1649.65,1649.72,1650.05,1649.60,1650.21,1650.91,1651.89,1652.43,1653.76,1653.67,1653.17,1653.50,1654.83,1655.55,1655.55,1654.82,1655.20,1655.50,1657.08,1657.16,1657.61,1658.62,1659.67,1659.92,1659.94,1659.44,1658.54,1657.16,1657.16,1658.20,1660.92,1663.23,1663.87,1661.86,1661.30,1662.11,1663.53,1663.26,1664.01,1665.09,1666.22,1666.03,1667.14,1667.61,1668.00,1667.78,1667.77,1668.00,1667.41,1667.72,1668.24,1668.58,1669.15,1669.77,1671.69,1672.17,1672.67,1672.37,1673.29,1673.80,1673.10,1673.41,1673.78,1674.92,1675.16,1675.23,1674.94,1674.75,1675.44,1677.55,1678.41,1679.44,1679.89,1680.22,1680.72,1680.42,1680.29,1681.61,1682.36,1682.69,1680.52,1680.35,1680.29,1681.28,1682.48,1683.04,1682.13,1681.34,1682.03,1683.40,1685.68,1686.45,1688.03,1687.64,1689.32,1688.30,1688.36,1687.76,1688.61,1689.72,1690.28,1689.60,1690.07,1689.66,1691.73,1691.74,1693.88,1694.59,1694.69,1695.48,1694.84,1695.56,1694.17,1693.08,1691.85,1692.55,1693.89,1695.81,1695.69,1697.45,1698.40,1700.87,1700.45,1699.90,1698.81,1698.86,1698.94,1699.31,1699.77,1700.41,1700.39,1700.36,1701.76,1702.88,1703.83,1702.46,1703.47,1705.05,1704.27,1702.62,1701.18,1705.00,1706.34,1708.88,1708.93,1713.99,1718.69,0.00,0.00,0.00,0.00,0.00,0.00,0.00,0.00,0.00,665.82,670.04,663.55,647.07,639.44,650.18,685.29,697.22,701.71,701.98,701.32,699.91,697.28,694.40,683.55,665.60,651.31,646.05,640.96,639.46,638.34,639.29,640.33,640.45,642.12,642.72,645.65,645.61,645.23,644.80,646.52,649.46,652.14,654.05,656.25,656.84,656.05,655.77,654.83,656.04,654.77,656.07,656.99,659.37,660.01,658.51,656.72,654.46,654.96,654.21,653.85,653.92,656.02,658.37,659.56,660.85,660.48,660.09,661.85,665.23,666.18,663.93,662.58,663.80,665.06,666.60,666.58,668.43,669.95,673.32,675.34,676.71,678.05,680.39,681.31,681.93,682.37,690.04,698.48,704.23,705.77,705.57,703.83,702.72,703.25,703.92,705.42,706.15,709.89,711.58,713.47,713.51,712.25,709.09,696.92,680.02,667.55,657.59,537.12,0.00,0.00,0.00,0.00,0.00,0.00,0.00,0.00,0.00,0.00,0.00,0.00,0.00,0.00,0.00,0.00,0.00,0.00,0.00,0.00,0.00,0.00,0.00,0.00,0.00,0.00,0.00,0.00,0.00,0.00,0.00,0.00,0.00,0.00,0.00,0.00,0.00,0.00,0.00,0.00,0.00,0.00,0.00,0.00,0.00,0.00,0.00,0.00,0.00,0.00,0.00,0.00,0.00,0.00,0.00,0.00,0.00,0.00,0.00,0.00,0.00,0.00,0.00,0.00,0.00,0.00,0.00,0.00,0.00,0.00,0.00,0.00,0.00,0.00,0.00,0.00,0.00,0.00,0.00,0.00,0.00,0.00,0.00,0.00,0.00,0.00,0.00,0.00,0.00,0.00,0.00,0.00,0.00,0.00,0.00,0.00,0.00,0.00,0.00,0.00,0.00,0.00,0.00,0.00,0.00,0.00,0.00,0.00,0.00,0.00,0.00,0.00,0.00,0.00,0.00,0.00,0.00,0.00,0.00,0.00,0.00,0.00,0.00,0.00,0.00,0.00,0.00,0.00,0.00,0.00,0.00,0.00,0.00
0.00,0.00,0.00,0.00,0.00,0.00,0.00,0.00,0.00,0.00,0.00,0.00,0.00,0.00,0.00,0.00,0.00,0.00,0.00,0.00,0.00,0.00,0.00,0.00,0.00,0.00,0.00,0.00,0.00,0.00,0.00,0.00,0.00,0.00,0.00,0.00,0.00,0.00,0.00,0.00,0.00,0.00,0.00,0.00,0.00,0.00,0.00,0.00,0.00,0.00,0.00,0.00,0.00,0.00,0.00,0.00,0.00,0.00,0.00,0.00,0.00,0.00,0.00,0.00,0.00,0.00,0.00,0.00,0.00,0.00,0.00,0.00,0.00,0.00,0.00,0.00,1618.88,1627.40,1633.63,1636.50,1638.50,1638.97,1639.97,1639.39,1640.80,1641.12,1642.63,1641.47,1642.33,1641.30,1642.17,1641.59,1641.42,1640.30,1641.71,1643.14,1645.05,1646.08,1647.97,1648.37,1648.28,1648.33,1649.28,1648.74,1649.81,1650.32,1650.86,1649.59,1648.96,1649.38,1650.02,1651.18,1652.08,1652.73,1653.06,1653.84,1653.79,1653.73,1654.32,1654.92,1655.52,1654.80,1655.24,1656.05,1656.59,1657.13,1655.70,1656.61,1656.76,1659.22,1659.84,1660.49,1659.44,1658.23,1658.66,1658.66,1659.83,1661.61,1664.73,1665.20,1663.11,1661.81,1662.44,1664.51,1664.49,1665.09,1666.23,1667.84,1668.02,1668.64,1669.09,1669.10,1668.30,1667.55,1667.66,1668.29,1669.35,1670.79,1670.41,1670.69,1670.70,1672.88,1672.70,1672.54,1671.99,1674.85,1675.86,1675.48,1674.70,1675.05,1674.49,1674.66,1674.82,1675.64,1675.74,1677.21,1679.89,1680.28,1680.61,1680.83,1681.65,1681.82,1680.86,1681.06,1681.66,1682.89,1682.87,1683.01,1682.57,1682.63,1682.77,1684.74,1685.33,1684.97,1683.45,1684.44,1684.57,1687.77,1687.73,1689.54,1688.17,1689.71,1688.70,1689.49,1688.69,1689.72,1689.14,1689.51,1689.66,1691.20,1691.76,1693.26,1693.13,1694.11,1694.67,1695.06,1696.95,1697.12,1697.33,1696.21,1695.50,1695.51,1695.46,1696.27,1697.02,1697.10,1697.32,1697.43,1699.30,1700.26,1701.28,1700.90,1700.71,1700.47,1700.54,1700.72,1702.08,1703.18,1703.04,1703.12,1703.08,1704.56,1703.85,1704.14,1704.75,1704.03,1702.84,1702.28,1704.88,1706.52,1707.56,1705.92,1709.14,1711.02,1714.97,1713.87,0.00,0.00,0.00,0.00,0.00,0.00,0.00,0.00,648.63,656.15,652.37,657.00,680.80,692.06,697.75,698.41,698.36,696.26,695.36,693.27,693.02,682.00,665.72,653.44,646.12,640.97,639.14,639.43,639.54,640.58,642.43,645.06,646.14,646.74,646.82,645.09,645.52,645.55,648.23,648.10,650.25,652.63,654.54,654.02,653.75,653.66,655.03,654.36,654.25,653.92,655.63,657.74,658.24,657.29,654.79,654.66,653.86,653.43,652.54,653.78,655.18,657.36,658.75,658.78,658.27,659.75,662.76,662.82,661.59,661.34,663.84,665.14,666.73,666.70,667.55,668.33,671.47,673.99,675.05,676.93,678.09,679.87,680.39,683.12,690.63,697.26,702.91,703.81,704.92,702.73,702.89,702.56,703.85,705.19,706.53,709.66,711.23,712.16,711.17,708.81,703.91,688.53,665.00,652.36,628.72,0.00,0.00,0.00,0.00,0.00,0.00,0.00,0.00,0.00,0.00,0.00,0.00,0.00,0.00,0.00,0.00,0.00,0.00,0.00,0.00,0.00,0.00,0.00,0.00,0.00,0.00,0.00,0.00,0.00,0.00,0.00,0.00,0.00,0.00,0.00,0.00,0.00,0.00,0.00,0.00,0.00,0.00,0.00,0.00,0.00,0.00,0.00,0.00,0.00,0.00,0.00,0.00,0.00,0.00,0.00,0.00,0.00,0.00,0.00,0.00,0.00,0.00,0.00,0.00,0.00,0.00,0.00,0.00,0.00,0.00,0.00,0.00,0.00,0.00,0.00,0.00,0.00,0.00,0.00,0.00,0.00,0.00,0.00,0.00,0.00,0.00,0.00,0.00,0.00,0.00,0.00,0.00,0.00,0.00,0.00,0.00,0.00,0.00,0.00,0.00,0.00,0.00,0.00,0.00,0.00,0.00,0.00,0.00,0.00,0.00,0.00,0.00,0.00,0.00,0.00,0.00,0.00,0.00,0.00,0.00,0.00,0.00,0.00,0.00,0.00,0.00,0.00,0.00,0.00,0.00,0.00,0.00,0.00,0.00
0.00,0.00,0.00,0.00,0.00,0.00,0.00,0.00,0.00,0.00,0.00,0.00,0.00,0.00,0.00,0.00,0.00,0.00,0.00,0.00,0.00,0.00,0.00,1540.66,1550.60,0.00,0.00,0.00,0.00,0.00,0.00,0.00,0.00,0.00,0.00,0.00,0.00,0.00,0.00,0.00,0.00,0.00,0.00,0.00,0.00,0.00,0.00,0.00,0.00,0.00,0.00,0.00,0.00,0.00,0.00,0.00,0.00,0.00,0.00,0.00,0.00,0.00,0.00,0.00,0.00,0.00,0.00,0.00,0.00,0.00,0.00,0.00,0.00,0.00,0.00,0.00,0.00,0.00,1623.59,1631.83,1636.29,1639.59,1642.52,1643.74,1644.61,1644.67,1646.14,1646.71,1646.40,1645.81,1644.79,1646.37,1645.30,1645.36,1645.39,1646.44,1647.30,1648.11,1650.20,1651.74,1653.17,1654.07,1653.22,1651.82,1652.45,1653.30,1653.70,1653.59,1653.43,1654.51,1655.04,1657.63,1658.45,1659.18,1658.89,1658.79,1658.06,1658.90,1659.61,1660.00,1660.45,1660.05,1660.77,1661.66,1661.99,1662.07,1660.19,1661.17,1661.20,1664.07,1664.73,1665.97,1664.71,1664.46,1664.34,1664.08,1664.04,1665.44,1667.60,1668.07,1667.17,1666.80,1668.28,1670.49,1670.87,1670.24,1670.60,1671.95,1672.96,1673.04,1673.91,1674.19,1673.91,1672.97,1672.39,1672.76,1673.39,1674.39,1673.93,1674.63,1675.40,1676.93,1676.33,1676.78,1677.53,1679.82,1679.91,1680.12,1680.42,1680.86,1679.34,1679.77,1680.42,1680.41,1679.89,1680.41,1683.44,1683.99,1684.50,1683.73,1684.64,1684.96,1684.95,1685.43,1686.25,1686.99,1686.01,1686.99,1686.94,1688.21,1688.16,1689.50,1689.84,1689.55,1689.30,1689.51,1689.49,1691.21,1691.59,1692.87,1692.59,1693.94,1692.83,1692.84,1691.74,1693.64,1693.67,1693.83,1694.32,1696.56,1698.30,1698.36,1697.36,1697.14,1697.79,1698.33,1700.15,1701.20,1701.10,1700.20,1698.69,1699.48,1700.29,1701.65,1701.35,1700.44,1699.27,1698.93,1700.99,1703.60,1705.42,1705.11,1705.26,1705.31,1705.97,1705.73,1706.95,1707.47,1708.13,1707.30,1706.62,1706.48,1707.17,1707.69,1708.65,1707.71,1707.12,1706.89,1709.11,1709.23,1710.02,1707.66,1710.50,1711.40,1714.69,1716.57,1717.50,1720.52,0.00,0.00,0.00,0.00,0.00,0.00,0.00,0.00,0.00,671.93,695.22,701.27,702.17,702.15,698.99,695.57,692.86,692.06,692.74,683.83,672.64,663.66,655.51,650.07,646.89,647.67,646.49,648.15,650.10,653.04,653.36,652.65,653.18,650.95,651.61,651.54,652.72,651.39,650.63,654.41,657.76,658.47,656.55,656.14,656.99,657.05,656.70,656.70,657.69,658.46,658.62,658.08,657.13,657.55,656.70,656.36,656.04,656.76,657.45,657.83,658.75,659.03,660.29,663.23,665.02,664.56,663.25,664.51,667.23,669.30,670.33,671.04,671.34,672.74,674.03,675.96,676.59,679.63,680.71,682.18,682.62,687.34,693.84,699.99,706.06,707.29,707.83,705.49,706.52,706.07,706.93,708.51,710.65,714.34,715.61,716.72,714.95,710.74,701.86,676.41,650.80,625.16,579.20,0.00,0.00,0.00,0.00,0.00,0.00,0.00,0.00,0.00,0.00,0.00,0.00,0.00,0.00,0.00,0.00,0.00,0.00,0.00,0.00,0.00,0.00,0.00,0.00,0.00,0.00,0.00,0.00,0.00,0.00,0.00,0.00,0.00,0.00,0.00,0.00,0.00,0.00,0.00,0.00,0.00,0.00,0.00,0.00,0.00,0.00,0.00,0.00,0.00,0.00,0.00,0.00,0.00,0.00,0.00,0.00,0.00,0.00,0.00,0.00,0.00,0.00,0.00,0.00,0.00,0.00,0.00,0.00,0.00,0.00,0.00,0.00,0.00,0.00,0.00,0.00,0.00,0.00,0.00,0.00,0.00,0.00,0.00,0.00,0.00,0.00,0.00,0.00,0.00,0.00,0.00,0.00,0.00,0.00,0.00,0.00,0.00,0.00,0.00,0.00,0.00,0.00,0.00,0.00,0.00,0.00,0.00,0.00,0.00,0.00,0.00,0.00,0.00,0.00,0.00,0.00,0.00,0.00,0.00,0.00,0.00,0.00,0.00,0.00,0.00,0.00,0.00,0.00,0.00,0.00,0.00,0.00,0.00,0.00
0.00,0.00,0.00,0.00,0.00,0.00,0.00,0.00,0.00,0.00,0.00,0.00,0.00,0.00,0.00,0.00,0.00,0.00,0.00,0.00,0.00,0.00,1541.13,1570.48,1580.59,1578.52,1569.61,1556.29,0.00,0.00,0.00,0.00,0.00,0.00,0.00,0.00,0.00,0.00,0.00,0.00,0.00,0.00,0.00,0.00,0.00,0.00,0.00,0.00,0.00,0.00,0.00,0.00,0.00,0.00,0.00,0.00,0.00,0.00,0.00,0.00,0.00,0.00,0.00,0.00,0.00,0.00,0.00,0.00,0.00,0.00,0.00,0.00,0.00,0.00,0.00,0.00,0.00,0.00,0.00,0.00,1623.82,1632.00,1638.70,1642.44,1644.60,1645.83,1647.41,1647.87,1646.29,1645.37,1644.46,1648.00,1647.41,1647.75,1647.38,1648.06,1649.39,1649.74,1651.74,1651.71,1653.24,1653.91,1654.97,1653.37,1654.63,1653.68,1654.44,1654.18,1655.33,1656.25,1656.45,1657.32,1658.11,1659.16,1660.22,1659.47,1659.36,1660.88,1662.05,1660.89,1659.99,1660.59,1662.15,1663.21,1663.69,1663.35,1661.82,1661.51,1661.64,1664.20,1665.89,1667.11,1665.49,1665.47,1666.96,1668.36,1668.58,1668.57,1669.27,1670.12,1670.61,1670.35,1671.07,1671.97,1672.56,1671.91,1672.08,1673.32,1674.89,1675.27,1675.81,1675.33,1675.34,1674.77,1674.86,1675.00,1674.69,1674.69,1675.03,1676.59,1677.59,1678.02,1677.68,1677.89,1679.08,1680.95,1681.23,1681.29,1681.52,1682.48,1681.90,1681.69,1682.82,1683.34,1684.63,1684.27,1685.68,1685.33,1686.35,1686.12,1686.57,1686.60,1686.15,1685.91,1685.95,1687.00,1687.65,1690.09,1689.95,1690.15,1689.28,1690.27,1691.32,1691.59,1691.87,1691.62,1691.18,1691.79,1691.68,1693.13,1693.32,1694.73,1694.35,1694.81,1694.14,1695.24,1695.63,1696.62,1696.90,1698.64,1699.28,1698.82,1698.27,1698.33,1698.56,1698.95,1700.77,1702.51,1702.40,1701.42,1700.49,1702.71,1703.60,1703.78,1701.10,1700.56,1700.88,1701.04,1702.85,1704.17,1706.31,1705.90,1706.79,1707.03,1708.17,1708.12,1708.41,1708.02,1708.10,1707.95,1707.18,1706.39,1707.64,1708.84,1709.91,1709.19,1708.84,1710.17,1710.44,1711.29,1710.76,1710.04,1710.71,1711.04,1713.54,1715.81,1715.99,1719.16,0.00,0.00,0.00,0.00,0.00,0.00,0.00,0.00,0.00,0.00,696.53,701.59,702.71,701.86,698.72,694.08,690.62,688.36,689.22,682.79,676.59,670.31,663.03,656.67,651.87,651.12,649.55,650.49,652.87,655.16,656.06,654.73,655.81,653.43,653.41,653.04,654.30,652.98,651.45,652.57,654.40,654.50,653.63,653.72,654.41,654.08,653.63,653.14,653.67,653.68,654.88,655.31,655.72,655.36,654.13,653.42,653.67,654.68,655.14,655.00,655.66,655.80,657.76,659.47,661.05,660.98,661.63,663.98,666.07,667.53,668.36,670.02,670.95,671.71,671.76,673.04,673.78,676.92,677.96,680.42,681.35,687.10,692.37,698.42,702.46,704.09,704.66,703.87,705.01,705.29,705.74,707.70,709.83,713.42,714.22,714.12,712.09,706.99,692.36,657.91,618.97,0.00,0.00,0.00,0.00,0.00,0.00,0.00,0.00,0.00,0.00,0.00,0.00,0.00,0.00,0.00,0.00,0.00,0.00,0.00,0.00,0.00,0.00,0.00,0.00,0.00,0.00,0.00,0.00,0.00,0.00,0.00,0.00,0.00,0.00,0.00,0.00,0.00,0.00,0.00,0.00,0.00,0.00,0.00,0.00,0.00,0.00,0.00,0.00,0.00,0.00,0.00,0.00,0.00,0.00,0.00,0.00,0.00,0.00,0.00,0.00,0.00,0.00,0.00,0.00,0.00,0.00,0.00,0.00,0.00,0.00,0.00,0.00,0.00,0.00,0.00,0.00,0.00,0.00,0.00,0.00,0.00,0.00,0.00,0.00,0.00,0.00,0.00,0.00,0.00,0.00,0.00,0.00,0.00,0.00,0.00,0.00,0.00,0.00,0.00,0.00,0.00,0.00,0.00,0.00,0.00,0.00,0.00,0.00,0.00,0.00,0.00,0.00,0.00,0.00,0.00,0.00,0.00,0.00,0.00,0.00,0.00,0.00,0.00,0.00,0.00,0.00,0.00,0.00,0.00,0.00,0.00,0.00,0.00,0.00,0.00,0.00
0.00,0.00,0.00,0.00,0.00,0.00,0.00,0.00,0.00,0.00,0.00,0.00,0.00,0.00,0.00,0.00,0.00,0.00,0.00,0.00,0.00,0.00,1546.48,1583.13,1596.62,1598.60,1593.18,1587.05,1579.15,1569.22,0.00,0.00,0.00,0.00,0.00,0.00,0.00,0.00,0.00,0.00,0.00,0.00,0.00,0.00,0.00,0.00,0.00,0.00,0.00,0.00,0.00,0.00,0.00,0.00,0.00,0.00,0.00,0.00,0.00,0.00,0.00,0.00,0.00,0.00,0.00,0.00,0.00,0.00,0.00,0.00,0.00,0.00,0.00,0.00,0.00,0.00,0.00,0.00,0.00,0.00,0.00,0.00,1630.08,1639.94,1644.57,1648.75,1650.05,1650.53,1649.38,1649.48,1648.33,1651.18,1651.27,1652.31,1651.30,1651.07,1651.91,1653.09,1654.93,1655.53,1656.60,1655.95,1657.40,1656.94,1659.16,1657.68,1657.58,1657.20,1658.72,1660.52,1661.37,1660.93,1660.40,1660.87,1662.30,1662.90,1662.96,1664.98,1665.37,1665.39,1665.32,1666.34,1666.89,1666.78,1667.69,1667.14,1666.62,1666.22,1667.12,1667.76,1668.91,1670.29,1669.73,1669.76,1669.90,1671.48,1671.76,1672.03,1671.92,1672.08,1673.19,1673.61,1675.32,1675.52,1675.85,1674.79,1675.55,1677.07,1677.59,1677.84,1678.31,1679.28,1680.35,1679.94,1680.58,1679.32,1678.25,1677.41,1679.91,1681.87,1682.87,1681.72,1681.80,1682.85,1684.30,1684.12,1684.22,1684.67,1686.61,1687.69,1687.90,1687.80,1687.74,1687.99,1689.75,1689.18,1689.61,1688.89,1690.14,1689.73,1690.45,1691.25,1691.11,1689.99,1688.50,1689.95,1691.50,1693.84,1693.95,1694.20,1694.01,1694.21,1695.14,1695.47,1696.53,1695.37,1695.28,1694.57,1695.47,1696.54,1697.16,1697.61,1698.15,1698.95,1700.26,1701.02,1702.42,1703.01,1702.80,1702.88,1702.81,1702.52,1703.05,1703.40,1704.07,1704.81,1705.95,1707.30,1706.38,1705.01,1703.99,1706.79,1708.50,1708.55,1705.26,1705.63,1707.57,1708.10,1708.40,1708.45,1709.30,1709.03,1708.98,1709.93,1710.22,1711.07,1712.02,1711.50,1711.79,1712.17,1713.16,1711.97,1712.49,1713.38,1714.49,1714.32,1714.33,1714.50,1713.37,1713.61,1714.91,1716.02,1716.56,1716.55,1717.74,1720.67,1720.28,1723.51,1729.70,0.00,0.00,0.00,0.00,0.00,0.00,0.00,0.00,0.00,699.65,706.37,706.55,705.08,701.13,697.38,693.13,690.02,689.67,685.81,684.91,681.14,676.51,669.35,662.75,660.49,658.87,659.88,661.13,661.83,662.19,661.69,662.76,660.71,660.22,659.96,660.08,657.68,655.22,655.76,657.14,657.11,656.41,655.79,655.92,654.33,654.66,655.28,656.47,655.07,655.02,654.53,655.62,655.65,655.56,655.40,656.85,658.28,659.44,658.43,657.92,658.99,660.52,662.24,662.99,663.47,665.67,667.61,669.62,669.31,669.99,671.29,672.91,673.85,674.55,675.67,676.40,678.33,680.80,682.77,684.83,689.17,695.09,699.99,702.48,704.87,706.44,706.00,706.04,706.36,707.05,709.75,711.69,715.35,715.59,715.78,713.70,704.95,677.15,632.01,0.00,0.00,0.00,0.00,0.00,0.00,0.00,0.00,0.00,0.00,0.00,0.00,0.00,0.00,0.00,0.00,0.00,0.00,0.00,0.00,0.00,0.00,0.00,0.00,0.00,0.00,0.00,0.00,0.00,0.00,0.00,0.00,0.00,0.00,0.00,0.00,0.00,0.00,0.00,0.00,0.00,0.00,0.00,0.00,0.00,0.00,0.00,0.00,0.00,0.00,0.00,0.00,0.00,0.00,0.00,0.00,0.00,0.00,0.00,0.00,0.00,0.00,0.00,0.00,0.00,0.00,0.00,0.00,0.00,0.00,0.00,0.00,0.00,0.00,0.00,0.00,0.00,0.00,0.00,0.00,0.00,0.00,0.00,0.00,0.00,0.00,0.00,0.00,0.00,0.00,0.00,0.00,0.00,0.00,0.00,0.00,0.00,0.00,0.00,0.00,0.00,0.00,0.00,0.00,0.00,0.00,0.00,0.00,0.00,0.00,0.00,0.00,0.00,0.00,0.00,0.00,0.00,0.00,0.00,0.00,0.00,0.00,0.00,0.00,0.00,0.00,0.00,0.00,0.00,0.00,0.00,0.00,0.00,0.00,0.00,0.00,0.00
0.00,0.00,0.00,0.00,0.00,0.00,0.00,0.00,0.00,0.00,0.00,0.00,0.00,0.00,0.00,0.00,0.00,0.00,0.00,0.00,0.00,0.00,0.00,1583.56,1599.89,1605.58,1606.48,1605.61,1604.85,1598.59,1598.10,1592.84,1586.61,1577.61,0.00,0.00,0.00,0.00,0.00,0.00,0.00,0.00,0.00,0.00,0.00,0.00,0.00,0.00,0.00,0.00,0.00,0.00,0.00,0.00,0.00,0.00,0.00,0.00,0.00,0.00,0.00,0.00,0.00,0.00,0.00,0.00,0.00,0.00,0.00,0.00,0.00,0.00,0.00,0.00,0.00,0.00,0.00,0.00,0.00,0.00,0.00,0.00,0.00,1623.39,1635.50,1644.45,1648.68,1648.50,1648.74,1649.82,1650.33,1652.07,1652.06,1652.65,1652.34,1653.35,1653.98,1654.29,1654.97,1655.94,1656.36,1655.06,1657.43,1657.66,1660.69,1658.51,1658.48,1657.18,1658.90,1659.62,1661.36,1659.16,1659.43,1659.36,1661.25,1661.98,1662.34,1664.90,1665.15,1666.46,1667.05,1667.54,1667.53,1666.97,1668.53,1667.64,1667.05,1667.18,1668.12,1669.42,1669.69,1671.16,1670.65,1671.67,1672.15,1673.18,1673.24,1672.44,1672.87,1672.91,1675.08,1674.48,1675.21,1674.29,1675.05,1674.64,1676.42,1677.85,1678.06,1677.31,1678.64,1679.13,1680.65,1679.19,1681.44,1680.36,1679.84,1679.09,1681.73,1683.47,1684.17,1683.83,1684.78,1684.86,1685.66,1685.28,1686.45,1685.95,1686.96,1687.10,1688.88,1688.77,1688.61,1688.65,1691.34,1691.27,1691.40,1690.08,1691.26,1690.54,1691.45,1692.02,1691.70,1690.93,1689.23,1690.75,1691.87,1694.92,1695.82,1696.32,1696.24,1696.05,1696.84,1696.42,1696.74,1695.31,1695.54,1696.02,1696.71,1697.00,1696.72,1697.77,1699.52,1701.14,1703.18,1703.17,1703.67,1704.28,1704.51,1704.54,1703.44,1703.34,1704.55,1705.72,1706.23,1706.36,1707.58,1707.96,1707.58,1705.65,1706.14,1709.06,1710.54,1709.79,1706.63,1707.68,1710.19,1711.39,1711.19,1710.52,1710.34,1710.01,1709.40,1710.03,1709.82,1711.69,1714.03,1714.13,1713.56,1713.23,1715.69,1715.40,1715.72,1715.02,1715.85,1715.94,1716.77,1716.98,1714.52,1714.87,1715.33,1717.87,1717.66,1719.10,1720.62,1723.56,1721.02,1722.86,1726.89,0.00,0.00,0.00,0.00,0.00,0.00,0.00,0.00,0.00,694.95,704.81,705.67,703.53,700.68,698.19,694.15,689.60,687.87,685.27,683.84,680.81,678.40,672.72,668.00,664.81,664.80,664.57,664.36,662.54,661.70,659.36,659.04,656.59,658.49,657.65,659.75,657.13,656.65,655.44,656.61,655.19,655.36,654.01,653.82,651.47,651.62,652.08,652.97,652.40,652.51,652.02,653.56,653.44,654.08,654.36,656.59,657.37,657.62,657.05,656.69,657.20,657.00,658.51,660.68,662.21,664.65,665.27,667.04,666.32,666.40,668.10,669.84,672.11,673.86,675.80,676.30,676.78,679.51,681.63,684.34,688.49,694.87,698.31,699.90,702.35,703.81,703.51,703.58,704.97,705.92,707.48,708.36,711.35,711.85,711.83,708.42,691.42,635.87,0.00,0.00,0.00,0.00,0.00,0.00,0.00,0.00,0.00,0.00,0.00,0.00,0.00,0.00,0.00,0.00,0.00,0.00,0.00,0.00,0.00,0.00,0.00,0.00,0.00,0.00,0.00,0.00,0.00,0.00,0.00,0.00,0.00,0.00,0.00,0.00,0.00,0.00,0.00,0.00,0.00,0.00,0.00,0.00,0.00,0.00,0.00,0.00,0.00,0.00,0.00,0.00,0.00,0.00,0.00,0.00,0.00,0.00,0.00,0.00,0.00,0.00,0.00,0.00,0.00,0.00,0.00,0.00,0.00,0.00,0.00,0.00,0.00,0.00,0.00,0.00,0.00,0.00,0.00,0.00,0.00,0.00,0.00,0.00,0.00,0.00,0.00,0.00,0.00,0.00,0.00,0.00,0.00,0.00,0.00,0.00,0.00,0.00,0.00,0.00,0.00,0.00,0.00,0.00,0.00,0.00,0.00,0.00,0.00,0.00,0.00,0.00,0.00,0.00,0.00,0.00,0.00,0.00,0.00,0.00,0.00,0.00,0.00,0.00,0.00,0.00,0.00,0.00,0.00,0.00,0.00,0.00,0.00,0.00,0.00,0.00,0.00,0.00
0.00,0.00,0.00,0.00,0.00,0.00,0.00,0.00,0.00,0.00,0.00,0.00,0.00,0.00,0.00,0.00,0.00,0.00,0.00,0.00,0.00,0.00,0.00,1584.06,1603.49,1610.28,1614.00,1616.88,1619.16,1614.95,1615.55,1613.71,1613.39,1608.92,1602.36,1591.06,0.00,0.00,0.00,0.00,0.00,0.00,0.00,0.00,0.00,0.00,0.00,0.00,0.00,0.00,0.00,0.00,0.00,0.00,0.00,0.00,0.00,0.00,0.00,0.00,0.00,0.00,0.00,0.00,0.00,0.00,0.00,0.00,0.00,0.00,0.00,0.00,0.00,0.00,0.00,0.00,0.00,0.00,0.00,0.00,0.00,0.00,0.00,0.00,0.00,1632.27,1642.04,1647.33,1650.72,1652.99,1653.36,1653.68,1652.89,1654.40,1654.34,1656.29,1656.06,1657.52,1658.35,1660.23,1660.60,1659.37,1660.27,1660.61,1662.87,1662.31,1661.96,1661.45,1661.84,1662.62,1664.38,1663.79,1663.91,1663.66,1665.20,1667.29,1667.45,1669.11,1668.04,1670.18,1672.48,1673.36,1672.51,1670.88,1671.64,1670.93,1670.69,1671.05,1672.59,1673.97,1673.85,1674.71,1675.16,1676.93,1676.17,1676.38,1675.74,1675.92,1676.70,1676.66,1678.29,1677.28,1678.53,1677.59,1678.79,1678.64,1680.35,1682.01,1681.75,1680.90,1681.09,1682.54,1684.00,1682.95,1684.72,1684.72,1684.70,1683.85,1686.12,1687.98,1688.47,1688.15,1688.70,1689.28,1689.66,1690.33,1691.37,1691.36,1692.17,1692.77,1693.41,1693.27,1692.80,1692.73,1694.24,1693.98,1694.08,1692.59,1693.52,1692.86,1695.01,1696.39,1697.51,1696.81,1695.73,1696.86,1697.27,1698.29,1698.28,1698.93,1699.86,1700.03,1701.16,1700.99,1701.45,1700.34,1700.93,1701.60,1701.95,1700.76,1700.14,1700.58,1702.92,1704.76,1707.12,1707.45,1707.59,1707.11,1707.27,1707.54,1708.33,1708.05,1709.06,1709.39,1710.93,1710.10,1711.68,1711.29,1711.41,1708.91,1710.06,1712.68,1714.22,1714.37,1712.64,1713.51,1714.59,1715.61,1715.26,1714.99,1713.52,1713.43,1712.81,1714.39,1714.34,1716.51,1718.42,1718.47,1716.92,1715.54,1717.92,1718.71,1719.36,1717.49,1717.66,1718.75,1720.66,1720.84,1719.66,1719.88,1720.41,1722.18,1722.69,1723.78,1725.19,1727.83,1728.17,1728.69,1732.37,0.00,0.00,0.00,0.00,0.00,0.00,0.00,0.00,0.00,691.57,708.28,708.39,705.59,701.45,700.62,697.04,692.46,688.04,686.46,685.90,682.71,680.43,676.05,673.87,672.87,674.40,673.49,670.33,666.94,664.35,661.12,658.66,655.99,656.86,657.37,660.39,659.54,659.97,659.51,660.43,657.79,656.71,655.05,654.47,653.12,653.66,654.28,654.23,653.73,653.23,652.60,653.39,654.23,656.03,657.31,660.13,660.49,660.43,660.13,659.80,660.61,660.92,663.13,664.99,665.43,666.31,666.13,668.31,668.72,669.13,670.29,671.91,674.86,677.13,679.52,679.54,679.33,680.76,683.44,686.05,692.94,699.61,701.96,703.42,704.44,706.46,706.26,707.75,709.01,708.86,709.60,709.61,712.22,712.86,712.42,707.16,0.00,0.00,0.00,0.00,0.00,0.00,0.00,0.00,0.00,0.00,0.00,0.00,0.00,0.00,0.00,0.00,0.00,0.00,0.00,0.00,0.00,0.00,0.00,0.00,0.00,0.00,0.00,0.00,0.00,0.00,0.00,0.00,0.00,0.00,0.00,0.00,0.00,0.00,0.00,0.00,0.00,0.00,0.00,0.00,0.00,0.00,0.00,0.00,0.00,0.00,0.00,0.00,0.00,0.00,0.00,0.00,0.00,0.00,0.00,0.00,0.00,0.00,0.00,0.00,0.00,0.00,0.00,0.00,0.00,0.00,0.00,0.00,0.00,0.00,0.00,0.00,0.00,0.00,0.00,0.00,0.00,0.00,0.00,0.00,0.00,0.00,0.00,0.00,0.00,0.00,0.00,0.00,0.00,0.00,0.00,0.00,0.00,0.00,0.00,0.00,0.00,0.00,0.00,0.00,0.00,0.00,0.00,0.00,0.00,0.00,0.00,0.00,0.00,0.00,0.00,0.00,0.00,0.00,0.00,0.00,0.00,0.00,0.00,0.00,0.00,0.00,0.00,0.00,0.00,0.00,0.00,0.00,0.00,0.00,0.00,0.00,0.00,0.00,0.00,0.00
0.00,0.00,0.00,0.00,0.00,0.00,0.00,0.00,0.00,0.00,0.00,0.00,0.00,0.00,0.00,0.00,0.00,0.00,0.00,0.00,0.00,0.00,0.00,1580.74,1600.53,1609.76,1614.55,1618.77,1622.21,1619.85,1621.03,1621.74,1625.41,1626.63,1623.53,1618.66,1611.79,1607.82,1597.58,0.00,0.00,0.00,0.00,0.00,0.00,0.00,0.00,0.00,0.00,0.00,0.00,0.00,0.00,0.00,0.00,0.00,0.00,0.00,0.00,0.00,0.00,0.00,0.00,0.00,0.00,0.00,0.00,0.00,0.00,0.00,0.00,0.00,0.00,0.00,0.00,0.00,0.00,0.00,0.00,0.00,0.00,0.00,0.00,0.00,0.00,0.00,0.00,1638.85,1647.43,1653.00,1653.17,1653.33,1651.75,1652.89,1654.89,1657.63,1658.79,1658.97,1659.12,1659.68,1660.16,1659.30,1660.67,1660.16,1662.21,1661.89,1663.45,1663.06,1663.44,1662.57,1664.86,1664.48,1666.02,1665.35,1667.06,1668.42,1669.77,1670.71,1670.38,1670.97,1672.96,1673.13,1672.45,1671.34,1672.31,1672.64,1672.35,1672.31,1673.31,1675.33,1675.66,1676.17,1675.60,1676.29,1676.94,1676.88,1677.17,1676.66,1678.80,1679.47,1681.08,1679.47,1679.79,1678.74,1681.02,1681.21,1682.52,1683.20,1683.85,1682.46,1681.88,1682.34,1684.15,1684.11,1685.21,1685.42,1686.02,1685.50,1686.96,1688.62,1689.37,1689.62,1689.60,1690.18,1690.09,1691.57,1692.52,1692.94,1693.06,1693.29,1693.91,1693.55,1694.07,1693.51,1695.21,1695.03,1695.14,1693.20,1693.88,1694.05,1695.76,1696.67,1698.09,1698.09,1697.46,1697.39,1697.34,1697.92,1697.93,1698.77,1699.92,1700.52,1702.04,1702.32,1701.83,1701.10,1703.12,1705.28,1705.26,1702.91,1702.38,1703.06,1703.51,1704.86,1706.40,1708.43,1708.19,1707.89,1708.24,1709.27,1709.73,1708.95,1708.67,1709.38,1710.74,1710.19,1712.33,1713.09,1714.38,1711.80,1711.78,1712.56,1714.06,1714.35,1714.25,1713.81,1714.67,1715.83,1716.60,1716.38,1715.33,1715.83,1716.59,1717.52,1717.37,1718.97,1720.09,1720.78,1718.88,1717.08,1717.84,1719.28,1721.50,1720.53,1721.01,1721.47,1723.73,1724.48,1724.28,1724.14,1722.82,1724.08,1723.51,1725.42,1726.91,1731.10,1732.53,1732.29,1735.67,0.00,0.00,0.00,0.00,0.00,0.00,0.00,0.00,0.00,0.00,704.62,705.34,703.73,700.24,698.73,695.03,689.88,686.02,684.55,683.01,679.57,676.25,672.43,671.57,673.07,676.51,673.32,668.05,662.49,659.50,656.88,655.59,653.49,652.63,652.70,656.65,657.28,658.95,657.66,658.07,654.25,653.32,651.64,651.38,650.59,652.33,652.36,652.12,651.58,651.62,650.64,650.92,651.20,652.66,652.94,656.30,655.89,656.79,656.39,658.67,659.20,660.28,661.83,662.78,662.81,662.64,663.30,664.68,666.33,667.77,668.95,670.93,673.24,675.10,675.56,676.22,677.45,678.88,681.47,684.24,692.85,698.70,701.60,703.81,703.81,703.76,703.42,706.96,709.55,708.67,707.82,707.77,710.14,710.73,707.88,632.75,0.00,0.00,0.00,0.00,0.00,0.00,0.00,0.00,0.00,0.00,0.00,0.00,0.00,0.00,0.00,0.00,0.00,0.00,0.00,0.00,0.00,0.00,0.00,0.00,0.00,0.00,0.00,0.00,0.00,0.00,0.00,0.00,0.00,0.00,0.00,0.00,0.00,0.00,0.00,0.00,0.00,0.00,0.00,0.00,0.00,0.00,0.00,0.00,0.00,0.00,0.00,0.00,0.00,0.00,0.00,0.00,0.00,0.00,0.00,0.00,0.00,0.00,0.00,0.00,0.00,0.00,0.00,0.00,0.00,0.00,0.00,0.00,0.00,0.00,0.00,0.00,0.00,0.00,0.00,0.00,0.00,0.00,0.00,0.00,0.00,0.00,0.00,0.00,0.00,0.00,0.00,0.00,0.00,0.00,0.00,0.00,0.00,0.00,0.00,0.00,0.00,0.00,0.00,0.00,0.00,0.00,0.00,0.00,0.00,0.00,0.00,0.00,0.00,0.00,0.00,0.00,0.00,0.00,0.00,0.00,0.00,0.00,0.00,0.00,0.00,0.00,0.00,0.00,0.00,0.00,0.00,0.00,0.00,0.00,0.00,0.00,0.00,0.00,0.00,0.00
0.00,0.00,0.00,0.00,0.00,0.00,0.00,0.00,0.00,0.00,0.00,0.00,0.00,0.00,0.00,0.00,0.00,0.00,0.00,0.00,0.00,0.00,0.00,1571.73,1600.38,1613.56,1618.28,1623.17,1626.17,1626.36,1625.39,1627.30,1629.44,1634.04,1633.94,1633.76,1630.20,1629.05,1623.43,1616.23,1604.95,0.00,0.00,0.00,0.00,0.00,0.00,0.00,0.00,0.00,0.00,0.00,0.00,0.00,0.00,0.00,0.00,0.00,0.00,0.00,0.00,0.00,0.00,0.00,0.00,0.00,0.00,0.00,0.00,0.00,0.00,0.00,0.00,0.00,0.00,0.00,0.00,0.00,0.00,0.00,0.00,0.00,0.00,0.00,0.00,0.00,0.00,0.00,1633.76,1646.48,1651.76,1655.78,1655.00,1655.71,1656.92,1658.74,1660.91,1662.43,1664.00,1664.41,1664.49,1662.93,1662.90,1662.90,1664.57,1665.57,1665.43,1665.99,1665.76,1666.74,1668.38,1669.56,1670.73,1670.15,1671.56,1672.85,1674.00,1674.87,1674.54,1674.55,1674.90,1675.56,1675.73,1675.44,1676.43,1677.83,1677.66,1676.56,1676.99,1678.10,1678.93,1679.29,1679.21,1679.18,1679.27,1679.76,1680.26,1680.90,1682.81,1684.49,1685.44,1685.22,1685.65,1684.98,1686.52,1686.52,1687.56,1687.29,1687.83,1687.13,1686.72,1687.31,1687.96,1688.17,1688.08,1689.14,1690.16,1690.23,1691.10,1691.45,1692.22,1692.58,1693.32,1693.97,1693.47,1694.68,1694.99,1696.06,1696.50,1697.08,1697.09,1696.41,1697.76,1698.81,1700.54,1700.72,1699.18,1697.75,1698.17,1699.51,1701.05,1700.52,1701.80,1700.85,1701.32,1701.20,1702.32,1702.42,1702.93,1704.52,1705.07,1705.62,1705.86,1707.47,1706.90,1707.04,1708.61,1709.28,1708.85,1707.88,1708.49,1708.59,1707.25,1708.01,1710.18,1712.78,1713.12,1712.36,1712.59,1712.68,1712.87,1712.17,1712.32,1712.89,1714.25,1714.60,1716.65,1717.84,1717.86,1716.44,1715.74,1716.37,1717.14,1717.37,1718.52,1718.49,1719.89,1720.22,1719.90,1719.80,1719.17,1719.71,1721.58,1722.68,1723.65,1723.49,1724.01,1724.96,1723.79,1723.29,1723.01,1724.22,1725.42,1724.35,1724.33,1724.57,1725.96,1726.33,1727.50,1728.96,1728.87,1729.74,1729.90,1731.01,1731.70,1734.32,1737.73,1738.37,1742.86,0.00,0.00,0.00,0.00,0.00,0.00,0.00,0.00,0.00,0.00,704.94,706.40,705.89,702.08,700.10,695.92,692.48,689.20,687.73,685.41,682.89,678.72,674.92,672.95,674.26,677.09,674.80,669.35,663.18,659.33,657.54,656.69,655.74,654.22,655.16,657.23,658.76,659.24,658.59,657.56,655.15,654.14,653.44,652.56,652.27,654.16,654.87,655.01,654.63,654.29,654.09,653.10,653.87,654.09,654.35,656.12,656.99,659.39,660.54,662.79,663.23,664.36,665.04,665.17,664.31,664.12,664.74,666.87,668.55,671.22,671.69,673.76,673.87,675.35,675.55,677.67,679.66,680.99,683.27,686.33,696.64,703.69,707.37,708.84,708.73,708.25,708.10,710.79,712.28,711.08,710.07,711.03,713.15,713.02,698.30,0.00,0.00,0.00,0.00,0.00,0.00,0.00,0.00,0.00,0.00,0.00,0.00,0.00,0.00,0.00,0.00,0.00,0.00,0.00,0.00,0.00,0.00,0.00,0.00,0.00,0.00,0.00,0.00,0.00,0.00,0.00,0.00,0.00,0.00,0.00,0.00,0.00,0.00,0.00,0.00,0.00,0.00,0.00,0.00,0.00,0.00,0.00,0.00,0.00,0.00,0.00,0.00,0.00,0.00,0.00,0.00,0.00,0.00,0.00,0.00,0.00,0.00,0.00,0.00,0.00,0.00,0.00,0.00,0.00,0.00,0.00,0.00,0.00,0.00,0.00,0.00,0.00,0.00,0.00,0.00,0.00,0.00,0.00,0.00,0.00,0.00,0.00,0.00,0.00,0.00,0.00,0.00,0.00,0.00,0.00,0.00,0.00,0.00,0.00,0.00,0.00,0.00,0.00,0.00,0.00,0.00,0.00,0.00,0.00,0.00,0.00,0.00,0.00,0.00,0.00,0.00,0.00,0.00,0.00,0.00,0.00,0.00,0.00,0.00,0.00,0.00,0.00,0.00,0.00,0.00,0.00,0.00,0.00,0.00,0.00,0.00,0.00,0.00,0.00,0.00,0.00
0.00,0.00,0.00,0.00,0.00,0.00,0.00,0.00,0.00,0.00,0.00,0.00,0.00,0.00,0.00,0.00,0.00,0.00,0.00,0.00,0.00,0.00,0.00,1561.60,1597.41,1614.04,1619.82,1622.58,1623.77,1625.78,1627.49,1628.93,1630.14,1632.94,1634.54,1637.12,1636.80,1638.96,1636.25,1634.55,1631.24,1626.95,1619.01,1605.75,0.00,0.00,0.00,0.00,0.00,0.00,0.00,0.00,0.00,0.00,0.00,0.00,0.00,0.00,0.00,0.00,0.00,0.00,0.00,0.00,0.00,0.00,0.00,0.00,0.00,0.00,0.00,0.00,0.00,0.00,0.00,0.00,0.00,0.00,0.00,0.00,0.00,0.00,0.00,0.00,0.00,0.00,0.00,0.00,0.00,0.00,1640.46,1650.16,1654.53,1656.10,1658.33,1659.40,1662.04,1661.52,1662.69,1663.12,1663.69,1662.88,1664.32,1663.35,1664.88,1665.65,1667.36,1666.71,1667.31,1667.52,1670.61,1671.00,1672.34,1670.42,1670.63,1671.55,1673.48,1674.57,1674.92,1675.24,1675.37,1675.86,1676.56,1676.15,1677.68,1677.68,1678.58,1676.34,1677.77,1679.12,1681.10,1680.00,1679.92,1680.05,1681.41,1680.02,1680.60,1680.78,1683.61,1684.04,1685.68,1686.37,1687.45,1686.38,1687.09,1687.50,1689.27,1687.68,1686.93,1685.92,1687.11,1688.43,1688.22,1687.68,1686.77,1688.62,1690.42,1691.95,1692.09,1691.75,1692.40,1692.86,1693.66,1694.31,1694.37,1695.72,1695.48,1695.48,1695.63,1696.15,1696.83,1695.36,1696.48,1698.42,1700.60,1701.07,1699.85,1699.48,1699.64,1700.72,1701.39,1701.37,1702.19,1701.35,1701.17,1701.25,1702.67,1703.50,1703.97,1706.54,1706.60,1707.95,1707.14,1709.47,1709.28,1709.44,1710.15,1709.92,1710.15,1710.22,1710.70,1710.75,1709.19,1710.19,1712.38,1714.12,1714.01,1712.75,1713.94,1714.33,1713.77,1712.24,1712.21,1713.81,1715.09,1716.57,1716.45,1717.99,1718.10,1718.12,1717.04,1717.05,1718.34,1718.00,1718.68,1719.16,1721.60,1722.00,1721.07,1721.58,1721.89,1723.14,1724.05,1724.26,1724.35,1723.87,1725.13,1727.03,1726.69,1727.24,1727.37,1727.91,1727.99,1727.13,1727.75,1727.02,1727.24,1727.16,1727.86,1729.34,1730.04,1732.12,1731.53,1732.35,1732.75,1735.33,1736.51,1736.58,1738.96,0.00,0.00,0.00,0.00,0.00,0.00,0.00,0.00,0.00,0.00,699.21,703.51,704.38,700.61,696.82,692.94,690.01,688.95,684.89,681.06,678.80,676.83,675.21,673.55,673.35,672.22,669.01,665.55,660.07,656.72,655.36,655.45,655.09,654.15,653.66,653.37,653.37,653.75,653.83,653.81,652.71,652.49,651.27,651.69,650.42,651.77,652.00,653.23,652.96,652.92,653.43,653.22,653.57,652.98,652.82,653.68,653.78,656.54,658.30,661.00,661.25,661.42,662.78,662.86,663.29,663.55,664.56,665.68,666.54,669.42,670.22,671.86,671.39,673.20,673.36,676.36,678.23,680.38,681.30,685.27,694.67,704.29,709.42,710.70,710.36,709.01,708.82,710.48,711.50,711.42,710.56,712.36,712.47,709.36,0.00,0.00,0.00,0.00,0.00,0.00,0.00,0.00,0.00,0.00,0.00,0.00,0.00,0.00,0.00,0.00,0.00,0.00,0.00,0.00,0.00,0.00,0.00,0.00,0.00,0.00,0.00,0.00,0.00,0.00,0.00,0.00,0.00,0.00,0.00,0.00,0.00,0.00,0.00,0.00,0.00,0.00,0.00,0.00,0.00,0.00,0.00,0.00,0.00,0.00,0.00,0.00,0.00,0.00,0.00,0.00,0.00,0.00,0.00,0.00,0.00,0.00,0.00,0.00,0.00,0.00,0.00,0.00,0.00,0.00,0.00,0.00,0.00,0.00,0.00,0.00,0.00,0.00,0.00,0.00,0.00,0.00,0.00,0.00,0.00,0.00,0.00,0.00,0.00,0.00,0.00,0.00,0.00,0.00,0.00,0.00,0.00,0.00,0.00,0.00,0.00,0.00,0.00,0.00,0.00,0.00,0.00,0.00,0.00,0.00,0.00,0.00,0.00,0.00,0.00,0.00,0.00,0.00,0.00,0.00,0.00,0.00,0.00,0.00,0.00,0.00,0.00,0.00,0.00,0.00,0.00,0.00,0.00,0.00,0.00,0.00,0.00,0.00,0.00,0.00,0.00,0.00
0.00,0.00,0.00,0.00,0.00,0.00,0.00,0.00,0.00,0.00,0.00,0.00,0.00,0.00,0.00,0.00,0.00,0.00,0.00,0.00,0.00,0.00,0.00,1556.89,1595.77,1615.69,1623.57,1625.70,1625.55,1626.67,1629.04,1632.35,1632.94,1634.95,1634.78,1639.37,1641.92,1646.68,1645.28,1646.54,1645.53,1643.72,1639.17,1633.31,1625.12,1615.72,0.00,0.00,0.00,0.00,0.00,0.00,0.00,0.00,0.00,0.00,0.00,0.00,0.00,0.00,0.00,0.00,0.00,0.00,0.00,0.00,0.00,0.00,0.00,0.00,0.00,0.00,0.00,0.00,0.00,0.00,0.00,0.00,0.00,0.00,0.00,0.00,0.00,0.00,0.00,0.00,0.00,0.00,0.00,0.00,0.00,0.00,1645.18,1653.23,1657.46,1661.55,1663.62,1664.80,1664.97,1666.13,1666.54,1667.39,1668.23,1668.22,1667.64,1669.23,1669.81,1670.47,1670.98,1672.29,1673.79,1673.87,1674.47,1673.87,1673.93,1675.79,1677.04,1678.66,1677.94,1678.84,1678.90,1679.86,1680.38,1680.34,1681.41,1681.66,1682.37,1681.23,1682.68,1684.02,1685.17,1684.85,1685.18,1686.33,1686.31,1685.40,1685.39,1685.78,1686.87,1687.26,1689.08,1690.95,1692.64,1691.67,1691.16,1690.74,1692.07,1691.15,1690.98,1690.55,1691.44,1693.09,1692.69,1692.65,1691.58,1694.17,1695.39,1696.36,1695.49,1695.30,1695.44,1696.17,1697.36,1698.20,1699.24,1700.24,1699.77,1698.55,1698.29,1699.12,1699.79,1698.57,1700.26,1703.08,1704.78,1704.24,1704.01,1704.45,1705.38,1705.45,1706.14,1706.34,1706.48,1706.05,1705.18,1706.20,1707.31,1709.11,1708.87,1711.29,1711.45,1713.21,1711.95,1712.94,1714.09,1715.17,1715.67,1713.88,1713.45,1713.98,1714.54,1714.71,1714.76,1715.42,1717.03,1717.41,1717.45,1717.08,1717.63,1718.65,1718.43,1717.71,1718.46,1719.45,1720.90,1721.70,1721.79,1721.88,1721.55,1722.14,1722.02,1722.27,1722.92,1723.11,1723.20,1723.57,1726.00,1726.38,1726.19,1726.65,1726.69,1726.46,1726.69,1728.37,1730.16,1729.44,1729.50,1730.66,1730.66,1731.87,1731.78,1731.72,1730.64,1729.23,1729.89,1730.19,1730.27,1730.88,1731.26,1733.49,1734.77,1736.26,1736.75,1736.52,1737.29,1737.11,1738.91,1739.30,1741.87,0.00,0.00,0.00,0.00,0.00,0.00,0.00,0.00,0.00,0.00,696.03,705.01,706.75,702.21,698.73,694.98,693.17,691.37,686.17,680.98,679.24,679.74,679.47,676.52,674.39,671.00,668.16,664.88,662.08,659.35,658.24,657.15,656.33,656.04,655.55,653.97,653.75,653.58,654.52,654.13,653.79,653.37,653.52,653.81,653.13,652.42,653.39,654.44,654.65,653.90,655.31,656.22,657.51,656.03,656.10,655.96,657.54,659.75,661.29,661.73,661.23,662.18,665.09,665.61,665.95,665.76,666.68,667.58,669.35,671.43,673.21,672.69,672.94,674.17,676.77,679.80,680.89,682.01,683.43,688.32,698.83,711.44,717.43,718.01,716.59,714.61,714.17,714.09,714.50,714.81,714.97,716.83,713.20,687.11,0.00,0.00,0.00,0.00,0.00,0.00,0.00,0.00,0.00,0.00,0.00,0.00,0.00,0.00,0.00,0.00,0.00,0.00,0.00,0.00,0.00,0.00,0.00,0.00,0.00,0.00,0.00,0.00,0.00,0.00,0.00,0.00,0.00,0.00,0.00,0.00,0.00,0.00,0.00,0.00,0.00,0.00,0.00,0.00,0.00,0.00,0.00,0.00,0.00,0.00,0.00,0.00,0.00,0.00,0.00,0.00,0.00,0.00,0.00,0.00,0.00,0.00,0.00,0.00,0.00,0.00,0.00,0.00,0.00,0.00,0.00,0.00,0.00,0.00,0.00,0.00,0.00,0.00,0.00,0.00,0.00,0.00,0.00,0.00,0.00,0.00,0.00,0.00,0.00,0.00,0.00,0.00,0.00,0.00,0.00,0.00,0.00,0.00,0.00,0.00,0.00,0.00,0.00,0.00,0.00,0.00,0.00,0.00,0.00,0.00,0.00,0.00,0.00,0.00,0.00,0.00,0.00,0.00,0.00,0.00,0.00,0.00,0.00,0.00,0.00,0.00,0.00,0.00,0.00,0.00,0.00,0.00,0.00,0.00,0.00,0.00,0.00,0.00,0.00,0.00,0.00,0.00
0.00,0.00,0.00,0.00,0.00,0.00,0.00,0.00,0.00,0.00,0.00,0.00,0.00,0.00,0.00,0.00,0.00,0.00,0.00,0.00,0.00,0.00,0.00,0.00,1590.86,1612.18,1621.74,1624.80,1622.47,1623.64,1625.06,1631.68,1634.18,1637.29,1636.01,1640.78,1644.52,1649.56,1648.24,1647.58,1648.11,1648.17,1647.54,1644.60,1643.21,1641.17,1635.99,1626.79,1614.56,0.00,0.00,0.00,0.00,0.00,0.00,0.00,0.00,0.00,0.00,0.00,0.00,0.00,0.00,0.00,0.00,0.00,0.00,0.00,0.00,0.00,0.00,0.00,0.00,0.00,0.00,0.00,0.00,0.00,0.00,0.00,0.00,0.00,0.00,0.00,0.00,0.00,0.00,0.00,0.00,0.00,0.00,0.00,0.00,0.00,1650.60,1659.38,1663.95,1664.01,1664.07,1664.48,1665.23,1665.94,1667.83,1668.15,1668.23,1668.85,1671.16,1671.20,1672.17,1672.16,1673.07,1672.07,1672.72,1672.94,1673.85,1675.82,1677.14,1677.89,1677.82,1679.70,1680.89,1681.20,1680.25,1681.16,1681.17,1681.64,1681.29,1681.42,1682.84,1684.19,1685.48,1685.81,1686.39,1687.30,1687.26,1685.73,1685.97,1686.83,1688.75,1688.34,1689.26,1689.76,1692.32,1692.09,1692.48,1692.22,1693.25,1693.08,1692.18,1691.89,1692.35,1694.20,1694.24,1694.54,1693.71,1695.36,1695.80,1695.97,1695.89,1696.41,1696.32,1696.71,1697.25,1699.17,1700.25,1702.62,1702.57,1701.87,1700.76,1700.75,1701.63,1701.38,1702.93,1703.81,1704.72,1704.28,1705.71,1706.25,1707.05,1707.61,1708.15,1709.44,1708.79,1709.48,1707.77,1708.72,1708.83,1710.51,1708.74,1709.86,1710.88,1713.43,1713.17,1713.23,1714.53,1716.01,1716.41,1715.67,1714.98,1714.51,1714.77,1715.15,1716.69,1717.28,1718.35,1718.17,1717.50,1717.89,1718.07,1719.66,1719.97,1720.48,1721.28,1721.80,1722.30,1722.65,1722.32,1721.25,1721.89,1723.21,1725.02,1724.68,1725.70,1725.67,1724.94,1724.94,1726.62,1727.87,1727.72,1727.67,1727.62,1727.78,1728.13,1729.89,1731.39,1731.61,1730.34,1731.21,1730.80,1732.75,1732.10,1731.71,1731.06,1730.99,1733.07,1733.16,1733.55,1733.84,1734.12,1735.01,1736.02,1736.50,1736.88,1736.56,1738.31,1739.05,1740.80,1740.87,1742.16,0.00,0.00,0.00,0.00,0.00,0.00,0.00,0.00,0.00,0.00,685.59,700.88,703.71,701.04,696.86,692.86,689.70,688.27,684.10,679.56,676.03,675.27,675.98,675.55,672.77,666.72,662.89,660.79,660.25,658.81,656.81,654.93,652.87,653.07,651.50,650.66,649.47,650.56,651.57,652.51,652.17,651.29,650.99,651.67,651.08,649.47,650.06,652.08,652.32,651.53,652.29,654.42,655.22,654.75,655.27,656.41,656.39,657.06,657.74,658.76,658.46,659.18,660.85,661.35,662.61,664.09,666.15,666.68,667.89,668.58,670.36,670.16,672.47,673.78,676.44,677.72,678.19,679.29,682.22,689.05,699.67,712.09,718.41,720.40,717.78,715.60,714.42,715.12,715.66,716.63,715.42,714.06,698.61,0.00,0.00,0.00,0.00,0.00,0.00,0.00,0.00,0.00,0.00,0.00,0.00,0.00,0.00,0.00,0.00,0.00,0.00,0.00,0.00,0.00,0.00,0.00,0.00,0.00,0.00,0.00,0.00,0.00,0.00,0.00,0.00,0.00,0.00,0.00,0.00,0.00,0.00,0.00,0.00,0.00,0.00,0.00,0.00,0.00,0.00,0.00,0.00,0.00,0.00,0.00,0.00,0.00,0.00,0.00,0.00,0.00,0.00,0.00,0.00,0.00,0.00,0.00,0.00,0.00,0.00,0.00,0.00,0.00,0.00,0.00,0.00,0.00,0.00,0.00,0.00,0.00,0.00,0.00,0.00,0.00,0.00,0.00,0.00,0.00,0.00,0.00,0.00,0.00,0.00,0.00,0.00,0.00,0.00,0.00,0.00,0.00,0.00,0.00,0.00,0.00,0.00,0.00,0.00,0.00,0.00,0.00,0.00,0.00,0.00,0.00,0.00,0.00,0.00,0.00,0.00,0.00,0.00,0.00,0.00,0.00,0.00,0.00,0.00,0.00,0.00,0.00,0.00,0.00,0.00,0.00,0.00,0.00,0.00,0.00,0.00,0.00,0.00,0.00,0.00,0.00,0.00,0.00
0.00,0.00,0.00,0.00,0.00,0.00,0.00,0.00,0.00,0.00,0.00,0.00,0.00,0.00,0.00,0.00,0.00,0.00,0.00,0.00,0.00,0.00,0.00,0.00,1583.26,1610.72,1622.98,1628.43,1626.64,1627.62,1626.56,1632.49,1636.68,1642.00,1640.82,1643.69,1646.43,1652.17,1652.12,1651.94,1651.19,1652.56,1652.39,1653.34,1653.58,1654.42,1650.25,1646.53,1639.43,1633.61,1623.99,0.00,0.00,0.00,0.00,0.00,0.00,0.00,0.00,0.00,0.00,0.00,0.00,0.00,0.00,0.00,0.00,0.00,0.00,0.00,0.00,0.00,0.00,0.00,0.00,0.00,0.00,0.00,0.00,0.00,0.00,0.00,0.00,0.00,0.00,0.00,0.00,0.00,0.00,0.00,0.00,0.00,0.00,0.00,0.00,1650.52,1661.28,1666.41,1667.59,1668.43,1668.70,1669.84,1670.44,1671.94,1671.42,1672.72,1674.00,1675.28,1674.89,1674.77,1674.46,1674.06,1674.36,1675.68,1677.73,1679.72,1680.51,1681.31,1681.12,1682.83,1683.02,1683.41,1681.92,1684.17,1684.25,1686.14,1684.87,1686.23,1687.03,1687.95,1687.36,1689.18,1690.01,1691.43,1689.63,1689.19,1689.77,1691.04,1692.40,1693.16,1692.99,1692.82,1693.83,1695.08,1696.19,1695.87,1695.93,1696.22,1697.04,1697.83,1698.00,1698.35,1698.94,1699.30,1699.09,1699.75,1700.56,1700.81,1701.18,1700.94,1700.56,1700.83,1702.47,1703.52,1704.35,1706.31,1707.04,1706.66,1705.23,1705.38,1707.27,1708.27,1709.79,1709.30,1709.70,1708.72,1710.17,1710.13,1712.00,1712.57,1713.13,1713.90,1713.54,1714.84,1712.86,1713.85,1713.99,1716.01,1714.29,1714.71,1714.98,1716.61,1716.41,1715.90,1716.40,1718.14,1719.62,1719.48,1718.44,1717.95,1718.56,1718.96,1720.39,1720.76,1721.92,1722.31,1722.33,1722.79,1721.78,1722.77,1723.14,1725.36,1726.44,1726.48,1726.27,1726.19,1727.85,1726.55,1727.26,1727.27,1730.11,1729.98,1730.66,1729.98,1729.30,1729.36,1730.47,1731.64,1731.59,1731.80,1731.48,1731.74,1732.02,1734.05,1735.59,1736.40,1735.31,1735.27,1735.07,1736.53,1736.02,1735.04,1734.79,1735.68,1737.74,1738.30,1738.30,1739.02,1740.10,1740.91,1741.49,1740.11,1741.15,1740.16,1741.25,1741.98,1745.47,1745.86,1746.22,1747.82,0.00,0.00,0.00,0.00,0.00,0.00,0.00,0.00,0.00,680.69,700.30,705.33,703.46,699.42,693.96,691.88,688.98,687.35,682.90,680.55,677.16,676.67,675.26,672.73,666.03,662.58,660.10,660.67,659.56,657.63,655.65,654.06,654.68,653.72,653.14,652.04,652.82,653.33,653.59,653.50,652.63,653.11,652.83,653.51,651.40,652.75,653.79,655.15,653.95,654.19,655.19,655.99,655.90,657.41,658.67,659.91,660.41,660.49,660.98,660.43,661.63,662.24,662.67,663.95,665.23,668.02,669.65,672.29,671.84,673.19,672.96,675.00,675.06,677.04,678.63,679.05,680.62,684.85,693.03,704.51,715.67,721.47,723.91,723.17,720.57,716.49,713.88,716.20,717.52,713.11,702.90,596.02,0.00,0.00,0.00,0.00,0.00,0.00,0.00,0.00,0.00,0.00,0.00,0.00,0.00,0.00,0.00,0.00,0.00,0.00,0.00,0.00,0.00,0.00,0.00,0.00,0.00,0.00,0.00,0.00,0.00,0.00,0.00,0.00,0.00,0.00,0.00,0.00,0.00,0.00,0.00,0.00,0.00,0.00,0.00,0.00,0.00,0.00,0.00,0.00,0.00,0.00,0.00,0.00,0.00,0.00,0.00,0.00,0.00,0.00,0.00,0.00,0.00,0.00,0.00,0.00,0.00,0.00,0.00,0.00,0.00,0.00,0.00,0.00,0.00,0.00,0.00,0.00,0.00,0.00,0.00,0.00,0.00,0.00,0.00,0.00,0.00,0.00,0.00,0.00,0.00,0.00,0.00,0.00,0.00,0.00,0.00,0.00,0.00,0.00,0.00,0.00,0.00,0.00,0.00,0.00,0.00,0.00,0.00,0.00,0.00,0.00,0.00,0.00,0.00,0.00,0.00,0.00,0.00,0.00,0.00,0.00,0.00,0.00,0.00,0.00,0.00,0.00,0.00,0.00,0.00,0.00,0.00,0.00,0.00,0.00,0.00,0.00,0.00,0.00,0.00,0.00,0.00,0.00,0.00
0.00,0.00,0.00,0.00,0.00,0.00,0.00,0.00,0.00,0.00,0.00,0.00,0.00,0.00,0.00,0.00,0.00,0.00,0.00,0.00,0.00,0.00,0.00,0.00,1579.26,1607.63,1620.59,1626.81,1627.71,1629.22,1627.62,1629.74,1634.22,1640.14,1642.41,1644.45,1647.11,1651.01,1652.89,1652.64,1652.55,1653.20,1654.93,1655.75,1657.14,1656.97,1655.20,1653.93,1652.34,1649.89,1644.50,1639.12,1631.45,0.00,0.00,0.00,0.00,0.00,0.00,0.00,0.00,0.00,0.00,0.00,0.00,0.00,0.00,0.00,0.00,0.00,0.00,0.00,0.00,0.00,0.00,0.00,0.00,0.00,0.00,0.00,0.00,0.00,0.00,0.00,0.00,0.00,0.00,0.00,0.00,0.00,0.00,0.00,0.00,0.00,0.00,0.00,0.00,1656.97,1663.12,1665.77,1668.10,1669.70,1672.22,1672.97,1673.35,1672.60,1673.75,1674.09,1673.55,1673.64,1674.46,1675.14,1675.77,1675.79,1677.62,1678.34,1677.78,1677.16,1676.79,1679.31,1681.25,1682.67,1683.12,1684.81,1685.42,1686.50,1685.93,1686.22,1687.24,1687.94,1687.78,1688.94,1689.91,1691.60,1690.44,1690.33,1691.44,1693.32,1694.31,1694.61,1693.29,1692.98,1693.64,1695.34,1696.44,1695.99,1695.84,1695.97,1697.25,1698.86,1700.14,1700.18,1699.51,1699.03,1698.88,1700.14,1701.41,1702.21,1702.45,1701.85,1701.91,1702.79,1704.34,1704.35,1704.38,1706.27,1707.44,1707.21,1705.80,1706.62,1709.35,1710.73,1711.47,1710.20,1709.87,1709.49,1710.16,1710.65,1712.29,1712.92,1713.23,1714.09,1714.97,1716.16,1714.81,1714.95,1715.42,1716.24,1715.33,1715.59,1715.68,1716.68,1715.45,1715.86,1715.97,1718.64,1719.72,1720.29,1720.08,1719.79,1720.88,1721.04,1722.31,1722.16,1722.26,1722.54,1722.44,1723.71,1723.82,1723.88,1723.96,1725.17,1726.24,1726.87,1726.66,1727.49,1728.74,1727.79,1728.22,1726.83,1728.92,1729.12,1731.10,1730.64,1730.10,1731.29,1732.60,1734.40,1732.96,1733.65,1733.28,1734.78,1734.65,1735.87,1735.63,1736.69,1734.87,1734.81,1735.04,1736.75,1736.31,1735.57,1736.27,1738.83,1740.71,1740.54,1739.62,1739.30,1741.13,1741.85,1742.27,1741.19,1741.34,1740.82,1741.62,1744.71,1748.10,1749.37,1746.77,1747.43,0.00,0.00,0.00,0.00,0.00,0.00,0.00,0.00,0.00,0.00,697.46,703.86,702.45,696.98,690.86,688.31,685.05,683.58,679.74,677.84,673.62,673.21,672.32,668.66,662.05,659.67,658.17,658.35,657.32,655.27,653.99,653.00,653.76,651.91,650.66,649.47,650.23,650.31,650.86,651.33,651.84,652.05,651.48,650.61,649.00,649.86,651.29,652.97,653.05,653.78,653.55,653.76,654.44,656.31,657.48,657.41,657.66,658.09,660.17,660.94,661.40,660.50,660.78,662.25,664.05,666.79,669.50,670.99,670.54,670.45,671.67,672.63,673.14,673.48,676.53,677.23,680.47,684.29,693.12,704.85,715.12,719.81,720.82,719.26,714.73,704.61,698.97,704.48,705.88,700.48,0.00,0.00,0.00,0.00,0.00,0.00,0.00,0.00,0.00,0.00,0.00,0.00,0.00,0.00,0.00,0.00,0.00,0.00,0.00,0.00,0.00,0.00,0.00,0.00,0.00,0.00,0.00,0.00,0.00,0.00,0.00,0.00,0.00,0.00,0.00,0.00,0.00,0.00,0.00,0.00,0.00,0.00,0.00,0.00,0.00,0.00,0.00,0.00,0.00,0.00,0.00,0.00,0.00,0.00,0.00,0.00,0.00,0.00,0.00,0.00,0.00,0.00,0.00,0.00,0.00,0.00,0.00,0.00,0.00,0.00,0.00,0.00,0.00,0.00,0.00,0.00,0.00,0.00,0.00,0.00,0.00,0.00,0.00,0.00,0.00,0.00,0.00,0.00,0.00,0.00,0.00,0.00,0.00,0.00,0.00,0.00,0.00,0.00,0.00,0.00,0.00,0.00,0.00,0.00,0.00,0.00,0.00,0.00,0.00,0.00,0.00,0.00,0.00,0.00,0.00,0.00,0.00,0.00,0.00,0.00,0.00,0.00,0.00,0.00,0.00,0.00,0.00,0.00,0.00,0.00,0.00,0.00,0.00,0.00,0.00,0.00,0.00,0.00,0.00,0.00,0.00,0.00,0.00,0.00,0.00
0.00,0.00,0.00,0.00,0.00,0.00,0.00,0.00,0.00,0.00,0.00,0.00,0.00,0.00,0.00,0.00,0.00,0.00,0.00,0.00,0.00,0.00,0.00,0.00,0.00,1607.12,1622.46,1629.31,1631.92,1634.58,1633.12,1633.21,1635.21,1638.88,1641.49,1643.86,1646.79,1650.87,1654.72,1657.52,1658.39,1658.69,1660.75,1661.38,1662.19,1660.22,1659.90,1660.59,1661.23,1660.78,1657.40,1655.72,1649.60,1642.51,1628.48,0.00,0.00,0.00,0.00,0.00,0.00,0.00,0.00,0.00,0.00,0.00,0.00,0.00,0.00,0.00,0.00,0.00,0.00,0.00,0.00,0.00,0.00,0.00,0.00,0.00,0.00,0.00,0.00,0.00,0.00,0.00,0.00,0.00,0.00,0.00,0.00,0.00,0.00,0.00,0.00,0.00,0.00,0.00,1652.66,1663.12,1669.99,1673.73,1677.24,1676.88,1676.38,1675.37,1676.07,1676.74,1676.58,1677.22,1679.28,1680.35,1680.85,1679.68,1678.77,1677.60,1675.59,1673.47,1671.51,1674.59,1676.02,1680.12,1683.24,1686.04,1687.57,1688.57,1690.47,1690.89,1691.44,1691.02,1690.81,1692.04,1693.14,1695.17,1694.18,1694.89,1695.17,1696.92,1696.72,1697.34,1696.23,1696.95,1697.10,1699.44,1700.06,1699.79,1699.09,1697.90,1699.48,1700.45,1702.31,1702.51,1702.73,1702.97,1702.82,1704.07,1705.96,1707.51,1706.87,1705.61,1705.77,1707.03,1708.25,1707.46,1707.83,1709.97,1710.77,1710.66,1708.97,1710.94,1712.88,1713.85,1712.62,1712.69,1712.01,1712.29,1712.23,1713.04,1714.97,1714.79,1715.83,1717.03,1718.82,1719.38,1718.44,1718.49,1719.77,1720.80,1720.77,1721.11,1719.93,1720.72,1719.73,1720.69,1719.89,1721.59,1722.46,1723.69,1723.13,1723.17,1724.34,1725.11,1726.64,1726.88,1727.57,1727.66,1727.96,1728.11,1727.78,1727.41,1727.37,1728.08,1728.71,1730.22,1730.99,1732.45,1733.78,1732.97,1732.37,1730.10,1730.85,1731.43,1734.07,1734.70,1734.81,1735.50,1736.39,1738.17,1737.11,1739.23,1739.02,1741.72,1740.89,1741.47,1740.19,1740.49,1739.23,1739.22,1739.26,1739.96,1739.39,1740.60,1742.11,1744.72,1744.33,1743.65,1742.92,1743.16,1745.07,1745.53,1745.93,1746.19,1747.18,1746.68,1746.61,1747.99,1753.37,1754.68,1752.49,1751.07,0.00,0.00,0.00,0.00,0.00,0.00,0.00,0.00,0.00,0.00,699.25,706.71,704.83,699.68,693.99,691.92,688.56,686.50,682.02,680.16,675.41,674.33,671.48,668.41,663.20,661.41,659.54,659.45,658.34,657.61,655.98,655.40,654.71,654.29,653.56,653.53,652.67,651.94,651.42,652.64,654.11,654.37,653.95,652.81,652.44,652.37,652.00,653.60,654.16,656.76,656.02,656.82,655.89,657.26,657.74,658.95,660.66,660.90,663.55,664.88,666.45,665.46,664.46,665.27,666.05,668.66,671.25,672.37,672.64,672.69,675.15,675.33,676.22,675.61,679.85,681.19,685.74,689.19,698.07,708.65,717.15,721.30,723.29,722.57,717.47,704.75,698.89,701.48,698.87,679.11,0.00,0.00,0.00,0.00,0.00,0.00,0.00,0.00,0.00,0.00,0.00,0.00,0.00,0.00,0.00,0.00,0.00,0.00,0.00,0.00,0.00,0.00,0.00,0.00,0.00,0.00,0.00,0.00,0.00,0.00,0.00,0.00,0.00,0.00,0.00,0.00,0.00,0.00,0.00,0.00,0.00,0.00,0.00,0.00,0.00,0.00,0.00,0.00,0.00,0.00,0.00,0.00,0.00,0.00,0.00,0.00,0.00,0.00,0.00,0.00,0.00,0.00,0.00,0.00,0.00,0.00,0.00,0.00,0.00,0.00,0.00,0.00,0.00,0.00,0.00,0.00,0.00,0.00,0.00,0.00,0.00,0.00,0.00,0.00,0.00,0.00,0.00,0.00,0.00,0.00,0.00,0.00,0.00,0.00,0.00,0.00,0.00,0.00,0.00,0.00,0.00,0.00,0.00,0.00,0.00,0.00,0.00,0.00,0.00,0.00,0.00,0.00,0.00,0.00,0.00,0.00,0.00,0.00,0.00,0.00,0.00,0.00,0.00,0.00,0.00,0.00,0.00,0.00,0.00,0.00,0.00,0.00,0.00,0.00,0.00,0.00,0.00,0.00,0.00,0.00,0.00,0.00,0.00,0.00,0.00
0.00,0.00,0.00,0.00,0.00,0.00,0.00,0.00,0.00,0.00,0.00,0.00,0.00,0.00,0.00,0.00,0.00,0.00,0.00,0.00,0.00,0.00,0.00,0.00,0.00,1603.37,1620.37,1626.42,1630.29,1633.33,1633.76,1633.30,1633.52,1635.43,1638.29,1641.90,1644.94,1648.47,1652.24,1654.77,1657.19,1656.39,1659.66,1657.92,1659.28,1657.28,1660.17,1660.78,1661.16,1659.25,1659.01,1660.05,1659.27,1655.20,1649.57,1640.42,1630.80,0.00,0.00,0.00,0.00,0.00,0.00,0.00,0.00,0.00,0.00,0.00,0.00,0.00,0.00,0.00,0.00,0.00,0.00,0.00,0.00,0.00,0.00,0.00,0.00,0.00,0.00,0.00,0.00,0.00,0.00,0.00,0.00,0.00,0.00,0.00,0.00,0.00,0.00,0.00,0.00,0.00,0.00,0.00,1664.31,1671.44,1677.47,1676.84,1676.92,1674.75,1675.94,1676.16,1676.84,1677.78,1680.53,1682.07,1681.69,1676.86,1667.90,1644.31,0.00,1642.22,1646.26,1657.56,1665.41,1672.25,1679.62,1684.21,1687.68,1688.86,1690.30,1690.77,1691.02,1691.48,1691.22,1692.46,1693.43,1695.19,1694.77,1694.49,1694.38,1694.70,1694.98,1695.43,1696.29,1697.88,1698.17,1699.88,1699.69,1700.41,1699.51,1699.43,1699.93,1700.22,1701.65,1702.49,1703.37,1704.29,1704.21,1705.48,1706.14,1707.78,1706.49,1706.47,1706.69,1708.28,1708.74,1708.62,1709.77,1710.85,1711.20,1711.30,1710.63,1712.19,1712.88,1713.41,1711.85,1711.87,1711.84,1713.11,1713.41,1714.23,1714.83,1715.10,1716.20,1717.61,1719.47,1719.65,1719.35,1718.57,1720.23,1721.30,1721.92,1721.32,1720.95,1722.18,1721.95,1722.84,1722.27,1724.35,1724.61,1726.41,1725.14,1725.51,1726.01,1727.29,1728.32,1729.03,1728.29,1728.50,1727.86,1729.60,1729.66,1729.93,1730.03,1729.66,1729.66,1730.19,1731.12,1733.16,1734.30,1733.84,1733.19,1731.76,1732.13,1732.78,1735.75,1736.99,1736.79,1737.83,1738.10,1739.72,1738.15,1739.81,1739.97,1742.23,1742.57,1742.47,1743.02,1743.39,1742.02,1740.66,1740.66,1741.30,1739.89,1740.85,1743.13,1746.45,1746.42,1744.82,1744.50,1745.05,1747.78,1748.25,1747.52,1747.23,1747.90,1749.05,1749.36,1750.82,1755.25,1756.84,1754.55,1753.90,0.00,0.00,0.00,0.00,0.00,0.00,0.00,0.00,0.00,0.00,696.87,703.62,702.99,697.72,693.80,690.58,686.93,683.01,679.50,676.99,672.76,670.32,667.88,666.55,663.67,660.56,657.97,657.02,658.07,658.64,656.45,653.50,652.27,652.24,652.47,651.45,651.00,649.97,650.03,650.63,652.32,652.81,652.49,650.74,650.60,649.56,649.85,650.41,651.86,654.67,655.07,655.75,654.95,655.81,656.42,656.79,658.04,658.44,661.54,662.72,664.41,663.37,662.86,664.60,665.74,667.66,668.57,668.50,669.82,670.27,673.62,674.16,675.69,675.82,679.47,681.92,686.58,690.20,698.61,708.07,714.99,718.47,720.78,721.51,717.44,707.21,701.13,695.43,681.37,0.00,0.00,0.00,0.00,0.00,0.00,0.00,0.00,0.00,0.00,0.00,0.00,0.00,0.00,0.00,0.00,0.00,0.00,0.00,0.00,0.00,0.00,0.00,0.00,0.00,0.00,0.00,0.00,0.00,0.00,0.00,0.00,0.00,0.00,0.00,0.00,0.00,0.00,0.00,0.00,0.00,0.00,0.00,0.00,0.00,0.00,0.00,0.00,0.00,0.00,0.00,0.00,0.00,0.00,0.00,0.00,0.00,0.00,0.00,0.00,0.00,0.00,0.00,0.00,0.00,0.00,0.00,0.00,0.00,0.00,0.00,0.00,0.00,0.00,0.00,0.00,0.00,0.00,0.00,0.00,0.00,0.00,0.00,0.00,0.00,0.00,0.00,0.00,0.00,0.00,0.00,0.00,0.00,0.00,0.00,0.00,0.00,0.00,0.00,0.00,0.00,0.00,0.00,0.00,0.00,0.00,0.00,0.00,0.00,0.00,0.00,0.00,0.00,0.00,0.00,0.00,0.00,0.00,0.00,0.00,0.00,0.00,0.00,0.00,0.00,0.00,0.00,0.00,0.00,0.00,0.00,0.00,0.00,0.00,0.00,0.00,0.00,0.00,0.00,0.00,0.00,0.00,0.00,0.00,0.00,0.00
