0.00,0.00,0.00,0.00,0.00,0.00,0.00,0.00,0.00,0.00,0.00,0.00,0.00,0.00,0.00,0.00,0.00,1155.74,1203.70,1213.62,1221.59,1245.10,1267.07,1277.64,1282.25,1284.42,1286.69,1288.91,1292.66,1293.55,1294.31,1295.53,1301.38,1304.01,1300.60,1290.22,1285.60,0.00,0.00,0.00,0.00,0.00,0.00,1319.49,1329.88,1336.98,1338.92,1338.82,1338.25,1340.00,1345.70,1345.45,1345.78,1340.36,1341.65,1345.25,1349.56,1349.59,1347.71,1349.35,1347.99,1349.80,1349.91,1351.53,1350.31,1349.58,1351.86,1353.68,1355.79,1354.33,1356.34,1356.93,1361.14,1359.28,1359.16,1356.36,1356.60,1356.04,1359.80,1360.44,1359.51,1358.69,1363.85,1368.03,1368.81,1366.60,1366.46,1363.73,1368.56,1370.40,1372.59,1368.56,1368.51,1368.84,1370.11,1370.03,1370.83,1370.57,1373.23,1374.00,1375.60,1373.48,1372.08,1371.68,1370.02,1371.77,1369.53,1373.09,1370.34,1372.74,1370.80,1374.91,1375.50,1374.90,1373.13,1373.59,1377.30,1376.02,1374.53,1373.57,1376.26,1377.23,1377.99,1377.74,1376.39,1375.90,1378.97,1381.68,1382.07,1379.18,1379.92,1380.58,1382.54,1382.07,1380.89,1380.06,1380.27,1382.71,1381.31,1379.09,1377.48,1382.29,1382.74,1382.83,1381.77,1384.51,1386.46,1386.08,1385.67,1385.98,1384.57,1383.47,1382.86,1385.00,1386.08,1385.87,1387.45,1386.43,1383.40,1382.30,1384.31,1387.22,1388.17,1389.16,1389.68,1388.94,1388.72,1388.43,1386.81,1384.35,1384.49,1387.58,1390.00,1390.54,1389.61,1389.44,1390.21,1389.62,1390.27,1388.49,1390.16,1390.05,1392.13,1393.13,1391.90,1391.79,1389.93,1392.38,1391.61,1390.84,1389.21,1389.21,1391.32,1390.87,1391.12,1392.57,1395.01,1395.26,1394.92,1395.11,1396.53,1397.19,1397.55,1398.30,1398.55,1396.56,1394.87,1393.60,1395.35,1396.82,1397.32,1397.80,1397.06,1397.81,1398.20,1398.09,1399.39,1399.01,1399.76,1398.62,1399.48,1401.43,1402.69,1403.40,1402.85,1403.19,1402.66,1402.87,1402.79,1403.34,1403.13,1404.26,1403.57,1403.86,1401.26,1402.97,1403.03,1405.84,1404.94,1404.77,1406.16,1407.41,1408.17,1406.74,1407.99,1408.44,1408.62,1407.84,1408.58,1408.75,1410.33,1409.81,1410.15,1410.30,1410.29,1410.41,1410.99,1412.49,1412.64,1412.05,1411.98,1412.74,1413.04,1414.33,1414.36,1415.31,1415.72,1416.38,1414.66,1413.67,1415.49,1417.82,1418.56,1417.23,1417.88,1419.92,1420.62,1420.47,1419.58,1420.49,1419.87,1420.90,1420.57,1421.94,1420.84,1421.64,1422.16,1422.04,1421.05,1421.48,1424.87,1426.62,1426.05,1423.52,1421.68,1421.35,1423.62,1425.68,1425.26,1424.73,1426.46,1428.18,1429.14,1429.83,1429.96,1430.09,1430.18,1428.94,1430.12,1430.28,1433.70,1431.05,1431.04,1430.51,1432.33,1431.07,1431.07,1430.42,1431.80,1430.22,1431.33,1433.58,1435.95,1436.89,1436.34,1435.55,1434.50,1435.27,1436.92,1439.78,1438.43,1440.01,1438.11,1440.47,1437.91,1438.75,1434.66,1436.12,1440.05,1443.88,1444.05,1438.70,1437.32,1438.98,1440.53,1441.77,1438.48,1435.85,1435.09,1438.22,1441.75,1440.47,1440.91,1440.95,0.00,0.00,0.00,0.00,0.00,0.00,0.00,0.00,0.00,0.00,0.00,0.00,0.00,0.00,0.00,0.00,0.00,0.00,0.00,0.00,0.00,0.00,0.00,0.00,0.00,0.00,0.00,0.00,0.00,0.00,0.00,0.00,0.00,0.00,0.00,0.00,0.00,0.00,0.00,0.00,0.00,0.00,0.00,0.00,0.00,0.00,0.00,0.00,0.00,0.00,0.00,0.00,0.00,0.00,0.00,0.00,0.00,0.00,0.00,0.00,0.00,0.00,0.00,0.00,0.00,0.00,0.00,0.00,0.00,0.00,0.00,0.00,0.00,0.00,0.00,0.00,0.00,0.00,0.00,0.00,0.00,0.00,0.00,0.00,0.00,0.00,0.00,0.00,0.00,0.00,0.00,0.00,0.00,0.00,0.00,0.00,0.00,0.00,0.00,0.00,0.00,0.00,0.00,0.00,0.00,0.00,0.00,0.00,0.00,0.00,0.00,0.00,0.00,0.00,0.00,0.00,0.00,0.00,0.00,0.00,0.00,0.00,0.00,0.00,0.00,0.00,0.00,0.00,0.00,0.00,0.00,0.00,0.00,0.00,0.00,0.00,0.00,0.00,0.00,0.00,0.00
0.00,0.00,0.00,0.00,0.00,0.00,0.00,0.00,0.00,0.00,0.00,0.00,0.00,0.00,0.00,0.00,0.00,0.00,1197.57,1210.37,1217.41,1237.97,1261.42,1282.30,1286.21,1285.52,1285.77,1291.44,1293.83,1296.47,1294.31,1296.57,1300.53,1303.40,1304.26,1300.39,1290.10,1285.01,0.00,1290.35,1295.41,1300.41,0.00,1333.66,1338.72,1341.77,1341.92,1340.66,1340.58,1343.71,1348.31,1349.61,1348.78,1349.07,1350.52,1352.63,1351.03,1350.09,1348.64,1349.99,1352.64,1356.57,1355.30,1354.34,1354.01,1355.44,1358.41,1360.87,1363.43,1361.03,1358.68,1357.86,1360.05,1359.37,1361.73,1360.55,1360.20,1360.44,1362.54,1362.18,1361.43,1362.36,1368.20,1367.79,1367.21,1365.01,1366.52,1367.06,1370.04,1370.88,1372.54,1369.41,1370.64,1371.83,1375.78,1374.85,1375.32,1374.81,1376.41,1375.56,1375.17,1375.75,1374.69,1374.69,1371.93,1373.89,1374.52,1377.42,1375.56,1375.94,1377.46,1380.72,1381.45,1378.54,1377.01,1376.26,1380.06,1378.99,1379.55,1379.13,1381.05,1380.87,1380.30,1379.49,1378.09,1379.10,1381.99,1383.22,1382.92,1379.43,1380.85,1381.60,1385.18,1384.30,1384.01,1383.60,1384.60,1386.03,1385.00,1383.10,1381.66,1384.08,1384.22,1383.67,1383.59,1387.02,1388.71,1387.77,1385.35,1387.24,1388.88,1388.09,1387.35,1388.18,1390.54,1390.60,1390.72,1389.01,1387.11,1386.83,1388.51,1390.17,1391.02,1391.99,1391.33,1390.38,1390.63,1389.83,1389.02,1387.89,1388.50,1390.66,1391.46,1393.21,1391.09,1391.43,1391.98,1393.47,1393.85,1393.27,1394.54,1394.84,1396.19,1396.46,1395.07,1393.67,1391.83,1393.99,1395.19,1394.24,1393.00,1392.03,1394.74,1394.37,1393.07,1394.00,1397.62,1399.62,1400.08,1398.32,1399.62,1398.84,1399.25,1398.30,1399.20,1397.95,1398.47,1397.71,1400.09,1401.11,1400.41,1401.11,1400.02,1401.30,1401.09,1401.55,1403.28,1402.53,1403.57,1401.65,1401.64,1403.10,1404.80,1406.52,1406.07,1405.56,1405.35,1405.47,1406.15,1406.16,1406.68,1408.11,1408.11,1407.52,1404.93,1405.70,1407.62,1410.97,1409.53,1408.00,1408.62,1410.86,1410.58,1409.03,1409.28,1410.12,1412.10,1412.76,1414.38,1412.93,1413.67,1412.81,1413.67,1413.93,1413.78,1412.66,1412.49,1413.35,1414.19,1414.78,1415.99,1418.02,1418.21,1418.45,1417.83,1418.72,1419.04,1418.50,1415.70,1414.51,1416.58,1418.16,1420.55,1420.13,1422.42,1423.45,1424.92,1424.94,1423.57,1422.33,1421.14,1422.20,1423.03,1424.42,1423.89,1423.73,1425.11,1425.32,1424.47,1424.25,1427.08,1430.62,1430.04,1427.32,1425.16,1424.77,1426.44,1426.62,1427.59,1427.55,1430.17,1430.81,1432.25,1432.22,1433.52,1432.79,1432.56,1431.65,1434.86,1435.46,1437.04,1435.02,1435.68,1436.08,1436.28,1435.34,1435.61,1435.11,1437.27,1435.33,1435.90,1436.24,1438.46,1440.46,1439.85,1439.59,1438.40,1438.42,1439.55,1440.73,1441.40,1442.96,1442.03,1442.36,1441.36,1443.58,1440.39,1440.56,1441.88,1444.82,1445.14,1441.99,1443.25,1443.14,1444.01,1442.24,1440.79,1438.36,1437.83,1440.09,1443.67,1443.87,1443.79,1443.52,1443.67,0.00,0.00,0.00,0.00,0.00,0.00,0.00,0.00,0.00,0.00,0.00,0.00,0.00,0.00,0.00,0.00,0.00,0.00,0.00,0.00,0.00,0.00,0.00,0.00,0.00,0.00,0.00,0.00,0.00,0.00,0.00,0.00,0.00,0.00,0.00,0.00,0.00,0.00,0.00,0.00,0.00,0.00,0.00,0.00,0.00,0.00,0.00,0.00,0.00,0.00,0.00,0.00,0.00,0.00,0.00,0.00,0.00,0.00,0.00,0.00,0.00,0.00,0.00,0.00,0.00,0.00,0.00,0.00,0.00,0.00,0.00,0.00,0.00,0.00,0.00,0.00,0.00,0.00,0.00,0.00,0.00,0.00,0.00,0.00,0.00,0.00,0.00,0.00,0.00,0.00,0.00,0.00,0.00,0.00,0.00,0.00,0.00,0.00,0.00,0.00,0.00,0.00,0.00,0.00,0.00,0.00,0.00,0.00,0.00,0.00,0.00,0.00,0.00,0.00,0.00,0.00,0.00,0.00,0.00,0.00,0.00,0.00,0.00,0.00,0.00,0.00,0.00,0.00,0.00,0.00,0.00,0.00,0.00,0.00,0.00,0.00,0.00,0.00,0.00,0.00
0.00,0.00,0.00,0.00,0.00,0.00,0.00,0.00,0.00,0.00,0.00,0.00,0.00,0.00,0.00,0.00,0.00,0.00,1173.31,1203.62,1214.62,1225.27,1251.13,1276.89,1290.81,1288.05,1288.80,1290.70,1293.97,1295.72,1297.75,1298.20,1297.66,1299.34,1304.29,1301.79,1299.33,1290.99,1291.62,0.00,1293.23,1299.74,1316.94,1332.63,1340.82,1344.00,1346.95,1342.58,1341.24,1342.71,1348.69,1347.82,1346.86,1347.27,1350.57,1352.27,1350.80,1348.64,1350.05,1351.39,1355.39,1355.91,1355.50,1352.74,1354.95,1355.69,1357.39,1356.92,1358.63,1357.91,1357.94,1359.47,1360.00,1359.90,1363.38,1364.49,1365.07,1362.49,1363.34,1361.88,1364.28,1366.76,1369.60,1368.89,1368.18,1367.89,1367.09,1366.27,1366.52,1368.08,1371.15,1371.62,1371.71,1371.89,1375.27,1375.62,1376.28,1373.80,1375.14,1374.77,1376.03,1377.44,1377.74,1376.40,1373.68,1373.39,1376.16,1377.26,1376.24,1376.03,1378.20,1381.14,1382.05,1380.67,1380.55,1379.80,1382.73,1380.32,1379.90,1378.33,1381.10,1381.04,1380.33,1378.23,1379.61,1379.67,1381.11,1380.37,1381.34,1379.29,1381.78,1383.02,1386.74,1385.55,1385.60,1385.03,1384.05,1384.71,1383.81,1384.03,1382.47,1384.15,1384.14,1384.20,1385.20,1388.25,1389.35,1387.82,1384.97,1385.86,1386.74,1385.95,1386.60,1388.12,1390.96,1390.42,1389.90,1388.02,1387.54,1388.08,1390.65,1390.93,1392.42,1392.56,1392.40,1391.06,1391.62,1392.28,1392.07,1391.96,1390.24,1389.99,1389.62,1392.32,1392.53,1393.96,1394.74,1394.19,1393.21,1392.49,1394.86,1396.37,1397.34,1396.29,1394.92,1395.01,1394.41,1395.29,1394.92,1394.66,1394.28,1394.22,1396.50,1396.67,1395.18,1395.24,1396.56,1399.17,1398.81,1398.43,1398.31,1397.79,1398.63,1398.77,1399.54,1398.48,1398.27,1398.20,1400.37,1401.99,1401.70,1402.56,1401.45,1401.91,1400.58,1401.16,1403.25,1402.16,1403.46,1401.86,1403.52,1403.65,1403.63,1403.65,1403.61,1404.37,1404.47,1404.92,1406.04,1406.53,1407.79,1408.59,1408.55,1407.31,1405.65,1405.48,1408.49,1411.03,1410.98,1408.47,1409.35,1410.95,1411.07,1410.63,1411.24,1411.61,1411.78,1412.37,1414.03,1414.65,1415.17,1414.64,1414.39,1413.60,1413.46,1412.20,1412.17,1413.50,1413.97,1416.09,1416.92,1419.51,1419.36,1418.54,1418.24,1418.02,1418.74,1417.59,1416.35,1416.19,1418.22,1419.72,1420.06,1420.56,1421.91,1422.32,1422.90,1423.96,1424.26,1423.31,1421.62,1422.58,1423.61,1424.91,1424.15,1424.60,1425.57,1426.89,1425.31,1425.56,1428.00,1431.13,1430.29,1427.74,1425.97,1425.95,1424.98,1426.13,1427.50,1429.75,1430.52,1430.42,1431.34,1432.53,1434.73,1434.38,1433.21,1432.36,1433.74,1435.28,1436.50,1437.23,1436.76,1437.12,1436.20,1437.84,1439.13,1438.44,1438.41,1436.28,1436.67,1436.31,1439.11,1440.52,1440.41,1439.49,1438.82,1439.91,1439.89,1442.10,1442.11,1444.26,1441.52,1439.41,1439.06,1443.17,1440.39,1438.79,1439.64,1444.65,1444.12,1441.01,1442.95,1444.04,1445.38,1442.43,1442.51,1442.39,1442.05,1442.21,1443.39,1444.78,1447.52,1447.47,0.00,0.00,0.00,0.00,0.00,0.00,0.00,0.00,0.00,0.00,0.00,0.00,0.00,0.00,0.00,0.00,0.00,0.00,0.00,0.00,0.00,0.00,0.00,0.00,0.00,0.00,0.00,0.00,0.00,0.00,0.00,0.00,0.00,0.00,0.00,0.00,0.00,0.00,0.00,0.00,0.00,0.00,0.00,0.00,0.00,0.00,0.00,0.00,0.00,0.00,0.00,0.00,0.00,0.00,0.00,0.00,0.00,0.00,0.00,0.00,0.00,0.00,0.00,0.00,0.00,0.00,0.00,0.00,0.00,0.00,0.00,0.00,0.00,0.00,0.00,0.00,0.00,0.00,0.00,0.00,0.00,0.00,0.00,0.00,0.00,0.00,0.00,0.00,0.00,0.00,0.00,0.00,0.00,0.00,0.00,0.00,0.00,0.00,0.00,0.00,0.00,0.00,0.00,0.00,0.00,0.00,0.00,0.00,0.00,0.00,0.00,0.00,0.00,0.00,0.00,0.00,0.00,0.00,0.00,0.00,0.00,0.00,0.00,0.00,0.00,0.00,0.00,0.00,0.00,0.00,0.00,0.00,0.00,0.00,0.00,0.00,0.00,0.00,0.00,0.00,0.00
0.00,0.00,0.00,0.00,0.00,0.00,0.00,0.00,0.00,0.00,0.00,0.00,0.00,0.00,0.00,0.00,0.00,0.00,1144.68,1189.68,1210.43,1220.79,1237.49,1267.91,1291.26,1293.34,1291.38,1293.92,1297.66,1299.39,1299.18,1300.35,1302.50,1305.61,1308.46,1307.94,1303.67,1298.75,1292.18,1291.04,1290.66,1298.31,1310.96,1328.98,1340.43,1343.82,1349.25,1346.44,1346.24,1346.64,1350.97,1349.23,1348.42,1350.54,1353.76,1354.36,1352.66,1350.49,1352.34,1354.74,1359.70,1361.67,1359.69,1357.11,1358.33,1360.34,1359.53,1357.39,1357.47,1358.42,1358.06,1361.65,1363.02,1366.22,1368.72,1368.63,1367.87,1365.54,1367.87,1367.99,1370.69,1370.28,1371.54,1370.49,1370.13,1371.90,1370.54,1369.97,1367.83,1370.11,1373.71,1375.58,1375.42,1375.33,1376.70,1376.92,1377.72,1375.34,1375.64,1374.97,1376.81,1378.33,1379.36,1378.40,1376.91,1375.80,1377.67,1377.98,1377.54,1376.49,1379.41,1382.15,1385.71,1383.92,1383.37,1381.86,1385.18,1385.27,1386.55,1383.42,1383.91,1382.61,1383.05,1382.05,1383.96,1384.48,1385.41,1384.90,1386.97,1386.23,1387.43,1386.59,1388.37,1388.84,1389.18,1388.77,1386.99,1389.07,1389.43,1390.52,1388.29,1387.12,1387.09,1386.50,1387.16,1389.10,1390.40,1391.24,1389.08,1388.83,1389.03,1387.47,1389.03,1389.23,1391.86,1391.93,1391.87,1391.64,1391.95,1392.27,1392.79,1391.99,1393.18,1392.62,1392.41,1393.32,1395.35,1395.28,1395.32,1395.73,1394.60,1393.19,1393.29,1396.17,1396.36,1397.06,1397.50,1397.18,1396.07,1396.59,1398.31,1400.52,1401.55,1400.23,1397.64,1397.06,1396.96,1398.39,1397.88,1397.94,1396.24,1397.49,1399.28,1401.57,1398.66,1398.53,1397.98,1401.17,1401.75,1402.44,1402.47,1402.11,1402.96,1402.63,1402.86,1401.29,1401.67,1401.23,1402.69,1404.44,1405.00,1406.58,1405.07,1405.58,1403.57,1404.76,1405.23,1405.37,1405.94,1405.64,1407.12,1407.27,1406.45,1405.51,1404.68,1406.08,1407.41,1409.03,1410.15,1410.61,1411.19,1412.20,1412.56,1411.59,1410.28,1409.31,1412.69,1415.32,1417.14,1415.23,1414.60,1414.87,1414.62,1413.79,1414.71,1415.20,1415.69,1414.42,1415.85,1417.01,1418.09,1417.73,1417.62,1417.52,1416.76,1415.29,1415.43,1417.17,1418.04,1419.76,1420.65,1423.30,1422.71,1421.68,1421.93,1421.72,1422.85,1421.43,1421.19,1420.51,1422.26,1423.22,1424.19,1423.58,1424.73,1424.50,1426.04,1427.30,1428.44,1427.54,1426.54,1426.70,1427.63,1427.99,1428.44,1428.22,1429.50,1430.44,1430.13,1430.76,1432.63,1433.72,1432.80,1430.48,1430.93,1430.27,1430.22,1430.73,1432.02,1433.23,1432.86,1433.08,1434.63,1436.97,1438.18,1436.39,1435.01,1435.14,1436.74,1436.16,1436.81,1439.19,1441.31,1441.42,1439.19,1441.26,1441.85,1440.36,1438.74,1438.80,1440.61,1440.06,1441.24,1441.54,1441.24,1441.05,1442.56,1445.74,1446.29,1446.46,1444.85,1444.92,1443.22,1442.22,1443.38,1446.74,1444.83,1443.33,1443.66,1447.02,1446.53,1445.51,1448.08,1448.61,1448.02,1444.43,1446.36,1447.52,1446.82,1445.29,1446.31,1448.35,1450.68,1451.76,1453.97,0.00,0.00,0.00,0.00,0.00,0.00,0.00,0.00,0.00,0.00,0.00,0.00,0.00,0.00,0.00,0.00,0.00,0.00,0.00,0.00,0.00,0.00,0.00,0.00,0.00,0.00,0.00,0.00,0.00,0.00,0.00,0.00,0.00,0.00,0.00,0.00,0.00,0.00,0.00,0.00,0.00,0.00,0.00,0.00,0.00,0.00,0.00,0.00,0.00,0.00,0.00,0.00,0.00,0.00,0.00,0.00,0.00,0.00,0.00,0.00,0.00,0.00,0.00,0.00,0.00,0.00,0.00,0.00,0.00,0.00,0.00,0.00,0.00,0.00,0.00,0.00,0.00,0.00,0.00,0.00,0.00,0.00,0.00,0.00,0.00,0.00,0.00,0.00,0.00,0.00,0.00,0.00,0.00,0.00,0.00,0.00,0.00,0.00,0.00,0.00,0.00,0.00,0.00,0.00,0.00,0.00,0.00,0.00,0.00,0.00,0.00,0.00,0.00,0.00,0.00,0.00,0.00,0.00,0.00,0.00,0.00,0.00,0.00,0.00,0.00,0.00,0.00,0.00,0.00,0.00,0.00,0.00,0.00,0.00,0.00,0.00,0.00,0.00,0.00,0.00
0.00,0.00,0.00,0.00,0.00,0.00,0.00,0.00,0.00,0.00,0.00,0.00,0.00,0.00,0.00,0.00,0.00,0.00,0.00,1168.91,1212.67,1215.69,1228.67,1255.60,1281.46,1295.44,1295.64,1293.95,1296.15,1297.51,1298.10,1298.13,1302.30,1306.05,1310.70,1307.64,1302.14,1288.85,1275.54,1269.40,1275.87,1288.95,1309.08,1326.60,1338.12,1339.75,1345.07,1345.39,1348.25,1346.09,1349.75,1347.91,1349.97,1349.74,1353.35,1354.44,1354.52,1354.67,1355.63,1356.76,1357.06,1355.63,1355.26,1355.35,1359.01,1358.83,1358.44,1354.01,1355.61,1357.66,1359.13,1360.33,1362.86,1365.95,1365.53,1365.19,1366.11,1366.53,1366.99,1367.69,1369.42,1368.62,1369.91,1370.52,1371.89,1373.25,1372.83,1369.51,1368.88,1370.80,1375.73,1376.08,1375.00,1373.62,1372.50,1374.47,1376.67,1376.41,1375.66,1374.99,1377.97,1378.29,1379.57,1378.27,1379.48,1378.78,1378.15,1377.36,1375.85,1376.06,1377.36,1380.97,1385.14,1386.13,1385.73,1383.26,1384.12,1383.40,1383.44,1381.83,1382.74,1383.67,1383.77,1383.19,1384.98,1385.07,1385.80,1384.91,1387.11,1388.67,1390.79,1389.52,1388.96,1388.59,1388.73,1388.25,1386.55,1389.35,1390.41,1392.33,1390.76,1390.04,1389.80,1388.99,1388.44,1389.30,1390.12,1391.75,1391.57,1389.71,1388.91,1385.87,1387.99,1388.23,1391.97,1392.53,1393.10,1392.76,1392.42,1392.16,1392.63,1392.76,1393.35,1392.55,1393.11,1394.86,1396.94,1397.01,1397.05,1396.69,1394.99,1393.28,1393.38,1394.57,1395.56,1396.39,1397.25,1395.82,1394.62,1395.84,1397.06,1399.19,1400.27,1400.56,1398.72,1399.70,1399.54,1400.46,1397.99,1398.95,1396.83,1398.93,1398.79,1401.29,1398.13,1398.79,1397.60,1401.36,1401.47,1402.69,1402.12,1402.70,1403.91,1404.17,1403.33,1402.99,1403.75,1404.63,1404.14,1404.63,1404.81,1406.32,1405.20,1406.33,1404.52,1404.96,1403.87,1404.99,1405.94,1406.34,1407.47,1406.90,1406.79,1405.77,1406.33,1407.28,1408.17,1409.11,1409.23,1409.98,1411.56,1412.57,1413.26,1411.70,1410.83,1409.33,1411.02,1412.94,1415.85,1414.67,1415.04,1414.92,1415.34,1414.91,1414.58,1415.29,1414.88,1413.93,1415.24,1416.73,1418.27,1418.77,1417.82,1417.03,1415.70,1416.15,1416.96,1419.39,1419.75,1420.85,1421.06,1422.81,1422.69,1421.67,1422.19,1421.30,1422.36,1422.10,1422.75,1422.60,1422.45,1423.85,1423.53,1424.22,1423.99,1425.05,1426.21,1428.21,1429.90,1430.40,1428.80,1427.93,1427.48,1428.81,1429.61,1430.16,1431.12,1431.79,1431.58,1431.58,1433.35,1433.33,1433.28,1431.60,1431.99,1431.19,1431.53,1432.59,1433.86,1435.09,1435.34,1434.87,1436.06,1437.37,1437.92,1435.77,1435.56,1436.53,1437.39,1435.56,1435.43,1437.93,1440.16,1440.44,1439.05,1442.57,1442.95,1441.73,1438.41,1439.59,1440.93,1440.91,1441.92,1442.24,1442.03,1441.96,1442.98,1446.04,1446.09,1447.75,1447.46,1446.06,1444.20,1443.46,1445.14,1445.15,1442.40,1441.77,1444.85,1449.19,1449.03,1448.35,1447.99,1449.09,1446.75,1445.92,1447.02,1449.61,1448.14,1446.98,1447.16,1446.98,1447.29,1448.26,1452.91,0.00,0.00,0.00,0.00,0.00,0.00,0.00,0.00,0.00,0.00,0.00,0.00,0.00,0.00,0.00,0.00,0.00,0.00,0.00,0.00,0.00,0.00,0.00,0.00,0.00,0.00,0.00,0.00,0.00,0.00,0.00,0.00,0.00,0.00,0.00,0.00,0.00,0.00,0.00,0.00,0.00,0.00,0.00,0.00,0.00,0.00,0.00,0.00,0.00,0.00,0.00,0.00,0.00,0.00,0.00,0.00,0.00,0.00,0.00,0.00,0.00,0.00,0.00,0.00,0.00,0.00,0.00,0.00,0.00,0.00,0.00,0.00,0.00,0.00,0.00,0.00,0.00,0.00,0.00,0.00,0.00,0.00,0.00,0.00,0.00,0.00,0.00,0.00,0.00,0.00,0.00,0.00,0.00,0.00,0.00,0.00,0.00,0.00,0.00,0.00,0.00,0.00,0.00,0.00,0.00,0.00,0.00,0.00,0.00,0.00,0.00,0.00,0.00,0.00,0.00,0.00,0.00,0.00,0.00,0.00,0.00,0.00,0.00,0.00,0.00,0.00,0.00,0.00,0.00,0.00,0.00,0.00,0.00,0.00,0.00,0.00,0.00,0.00,0.00,0.00
0.00,0.00,0.00,0.00,0.00,0.00,0.00,0.00,0.00,0.00,0.00,0.00,0.00,0.00,0.00,0.00,0.00,0.00,0.00,0.00,1182.89,1222.01,1227.08,1238.95,1267.81,1287.94,1295.24,1299.18,1301.07,1304.91,1303.69,1301.22,1301.56,1302.26,1306.45,1300.90,1289.27,1264.15,1254.20,1252.83,1263.41,1286.48,1315.27,1335.70,1345.37,1344.84,1343.20,1345.13,1347.65,1347.47,1349.87,1350.62,1353.77,1354.71,1358.14,1359.44,1361.48,1360.47,1361.02,1360.04,1361.11,1359.22,1358.59,1358.51,1361.13,1361.59,1362.24,1361.84,1364.49,1364.82,1362.55,1362.38,1364.46,1367.92,1365.58,1365.37,1366.54,1368.35,1368.81,1370.22,1373.33,1373.33,1373.75,1373.31,1375.45,1376.74,1378.19,1375.66,1375.60,1376.22,1379.71,1379.74,1379.13,1378.54,1377.36,1377.46,1378.25,1379.89,1381.86,1381.09,1382.38,1381.08,1383.16,1380.91,1382.16,1381.18,1382.23,1381.49,1380.84,1380.92,1382.41,1384.26,1387.22,1387.92,1386.70,1384.86,1385.36,1387.32,1387.38,1386.38,1387.07,1388.12,1388.19,1386.97,1387.32,1388.51,1389.56,1388.46,1390.15,1391.41,1393.68,1391.57,1390.58,1389.64,1390.38,1391.16,1391.81,1393.77,1394.66,1393.98,1393.54,1392.90,1394.38,1391.01,1390.50,1390.64,1393.39,1394.26,1394.15,1392.40,1392.71,1391.05,1393.56,1393.81,1395.20,1394.23,1395.47,1396.45,1396.90,1395.73,1395.59,1395.74,1395.25,1395.22,1395.62,1396.97,1399.43,1399.26,1399.54,1399.34,1399.60,1398.51,1398.21,1398.50,1399.04,1399.23,1399.10,1398.31,1398.06,1398.99,1399.45,1399.88,1401.46,1402.81,1402.94,1403.70,1402.69,1402.88,1401.50,1401.90,1400.21,1402.13,1402.76,1403.99,1401.52,1402.82,1402.77,1404.95,1404.84,1405.51,1405.28,1406.12,1407.12,1406.16,1405.31,1404.92,1406.95,1406.97,1405.97,1405.60,1406.10,1407.72,1407.57,1409.77,1409.68,1409.81,1407.35,1408.49,1410.09,1411.60,1411.64,1410.04,1410.54,1410.39,1412.34,1412.44,1413.46,1414.57,1414.42,1414.76,1415.48,1415.54,1415.20,1413.25,1413.84,1413.11,1414.73,1416.06,1418.15,1417.11,1416.92,1417.00,1417.84,1417.05,1416.55,1417.02,1417.54,1416.77,1417.89,1418.33,1420.84,1421.80,1420.88,1420.28,1418.60,1420.19,1420.88,1422.57,1423.17,1423.32,1423.75,1425.38,1425.40,1425.73,1425.63,1425.21,1425.41,1425.95,1425.93,1426.27,1425.86,1427.37,1428.03,1428.28,1428.57,1428.48,1429.86,1430.85,1430.82,1431.12,1430.37,1430.23,1430.81,1430.99,1432.90,1432.71,1434.54,1433.78,1434.06,1434.13,1435.44,1434.64,1434.73,1433.38,1434.53,1434.10,1435.12,1434.98,1435.84,1438.19,1440.39,1440.40,1440.62,1440.25,1440.17,1438.17,1439.28,1440.12,1442.14,1440.20,1441.01,1442.09,1443.84,1443.73,1442.31,1443.86,1444.23,1442.84,1441.34,1442.48,1445.14,1445.36,1445.25,1445.25,1445.78,1446.63,1447.80,1449.22,1448.80,1449.46,1449.07,1447.41,1446.47,1448.07,1451.06,1449.21,1448.20,1447.81,1451.33,1451.76,1451.72,1452.33,1450.99,1451.76,1447.92,1449.72,1450.79,1452.61,1451.39,1451.01,1451.74,1450.54,1448.48,1450.38,1453.50,0.00,0.00,0.00,0.00,0.00,0.00,0.00,0.00,0.00,0.00,0.00,0.00,0.00,0.00,0.00,0.00,0.00,0.00,0.00,0.00,0.00,0.00,0.00,0.00,0.00,0.00,0.00,0.00,0.00,0.00,0.00,0.00,0.00,0.00,0.00,0.00,0.00,0.00,0.00,0.00,0.00,0.00,0.00,0.00,0.00,0.00,0.00,0.00,0.00,0.00,0.00,0.00,0.00,0.00,0.00,0.00,0.00,0.00,0.00,0.00,0.00,0.00,0.00,0.00,0.00,0.00,0.00,0.00,0.00,0.00,0.00,0.00,0.00,0.00,0.00,0.00,0.00,0.00,0.00,0.00,0.00,0.00,0.00,0.00,0.00,0.00,0.00,0.00,0.00,0.00,0.00,0.00,0.00,0.00,0.00,0.00,0.00,0.00,0.00,0.00,0.00,0.00,0.00,0.00,0.00,0.00,0.00,0.00,0.00,0.00,0.00,0.00,0.00,0.00,0.00,0.00,0.00,0.00,0.00,0.00,0.00,0.00,0.00,0.00,0.00,0.00,0.00,0.00,0.00,0.00,0.00,0.00,0.00,0.00,0.00,0.00,0.00,0.00,0.00,0.00
0.00,0.00,0.00,0.00,0.00,0.00,0.00,0.00,0.00,0.00,0.00,0.00,0.00,0.00,0.00,0.00,0.00,0.00,0.00,0.00,0.00,1213.76,1225.20,1235.05,1251.97,1273.80,1286.96,1297.60,1302.88,1306.51,1306.34,1301.38,1300.02,1297.44,1298.69,1285.68,1249.65,1237.89,1243.15,1246.21,1261.23,1281.72,1313.50,1334.96,1346.40,1343.68,1338.57,1338.20,1340.86,1342.29,1346.93,1347.82,1352.22,1352.77,1355.05,1356.01,1358.17,1358.51,1359.53,1357.18,1359.14,1356.51,1358.30,1358.54,1361.75,1360.98,1361.19,1363.55,1369.02,1369.04,1368.25,1366.49,1368.26,1367.28,1366.01,1366.39,1368.41,1369.09,1367.26,1368.02,1371.95,1374.33,1375.03,1373.82,1374.79,1375.32,1377.73,1377.28,1377.31,1376.49,1377.99,1378.51,1378.36,1378.25,1378.85,1379.92,1380.23,1381.12,1384.49,1385.54,1385.80,1383.17,1383.81,1381.74,1382.86,1383.80,1385.74,1383.70,1382.65,1383.42,1386.41,1387.54,1388.86,1389.75,1388.15,1386.18,1385.07,1386.52,1385.80,1385.44,1386.34,1388.60,1389.00,1388.49,1387.81,1387.88,1388.16,1387.32,1388.61,1389.32,1390.21,1390.90,1391.14,1391.58,1392.13,1393.18,1393.53,1392.31,1391.57,1391.09,1392.36,1393.40,1395.19,1391.62,1392.01,1391.77,1394.83,1393.41,1392.58,1391.59,1393.76,1394.06,1396.53,1396.09,1397.25,1395.77,1397.13,1397.34,1396.71,1395.82,1397.50,1397.86,1397.39,1395.21,1396.19,1396.41,1398.53,1399.25,1399.08,1399.46,1399.42,1399.72,1398.31,1397.30,1397.69,1398.55,1399.94,1399.17,1398.87,1398.25,1399.11,1399.11,1399.84,1400.57,1402.62,1404.76,1404.33,1403.46,1403.49,1403.47,1403.06,1403.22,1403.73,1403.10,1402.21,1402.87,1402.97,1403.52,1404.69,1406.60,1407.78,1407.07,1406.64,1404.94,1405.27,1405.01,1406.48,1406.10,1405.69,1405.79,1406.39,1407.94,1408.63,1410.10,1410.30,1410.34,1409.01,1409.65,1410.36,1411.56,1411.43,1410.03,1410.54,1411.14,1412.71,1412.27,1411.66,1412.99,1413.97,1415.90,1416.57,1415.34,1415.18,1412.64,1414.52,1413.87,1416.58,1417.29,1418.59,1415.98,1416.30,1416.55,1417.66,1416.72,1415.94,1417.23,1417.73,1417.52,1418.40,1418.16,1419.76,1420.60,1419.65,1420.53,1419.33,1421.98,1421.44,1422.89,1422.58,1422.74,1423.57,1425.25,1426.47,1425.80,1425.63,1425.48,1426.37,1426.75,1426.04,1425.79,1425.80,1426.62,1427.65,1428.04,1428.88,1428.93,1430.23,1431.19,1431.07,1430.54,1430.03,1431.00,1432.08,1431.24,1431.56,1432.18,1433.64,1433.25,1433.77,1434.22,1434.57,1433.57,1433.98,1435.21,1434.96,1436.54,1435.25,1436.77,1436.62,1439.98,1440.96,1440.23,1439.08,1437.92,1438.25,1438.36,1440.43,1440.65,1441.07,1441.99,1442.94,1443.13,1441.96,1442.56,1443.15,1443.63,1444.96,1444.27,1444.36,1443.33,1445.85,1446.91,1447.49,1446.83,1447.83,1448.41,1448.76,1449.28,1449.20,1449.70,1448.26,1447.87,1446.11,1447.29,1449.42,1450.38,1449.79,1450.17,1452.91,1454.45,1452.30,1452.19,1449.75,1452.53,1449.32,1451.10,1451.83,1452.56,1453.61,1452.69,1453.65,1449.57,1448.98,1450.89,1453.67,0.00,0.00,0.00,0.00,0.00,0.00,0.00,0.00,0.00,0.00,0.00,0.00,0.00,0.00,0.00,0.00,0.00,0.00,0.00,0.00,0.00,0.00,0.00,0.00,0.00,0.00,0.00,0.00,0.00,0.00,0.00,0.00,0.00,0.00,0.00,0.00,0.00,0.00,0.00,0.00,0.00,0.00,0.00,0.00,0.00,0.00,0.00,0.00,0.00,0.00,0.00,0.00,0.00,0.00,0.00,0.00,0.00,0.00,0.00,0.00,0.00,0.00,0.00,0.00,0.00,0.00,0.00,0.00,0.00,0.00,0.00,0.00,0.00,0.00,0.00,0.00,0.00,0.00,0.00,0.00,0.00,0.00,0.00,0.00,0.00,0.00,0.00,0.00,0.00,0.00,0.00,0.00,0.00,0.00,0.00,0.00,0.00,0.00,0.00,0.00,0.00,0.00,0.00,0.00,0.00,0.00,0.00,0.00,0.00,0.00,0.00,0.00,0.00,0.00,0.00,0.00,0.00,0.00,0.00,0.00,0.00,0.00,0.00,0.00,0.00,0.00,0.00,0.00,0.00,0.00,0.00,0.00,0.00,0.00,0.00,0.00,0.00,0.00,0.00,0.00
0.00,0.00,0.00,0.00,0.00,0.00,0.00,0.00,0.00,0.00,0.00,0.00,0.00,0.00,0.00,0.00,0.00,0.00,0.00,0.00,0.00,0.00,1214.08,1228.39,1242.05,1259.40,1278.05,1292.47,1302.19,1307.79,1308.15,1304.82,1300.20,1299.77,1287.37,1255.85,1229.22,1224.25,1239.79,1250.04,1265.42,1285.52,1308.60,0.00,0.00,0.00,0.00,0.00,0.00,1338.14,1344.15,1349.36,1354.74,1356.82,1358.51,1357.12,1359.53,1358.89,1360.07,1359.04,1362.50,1359.77,1358.91,1359.75,1363.66,1365.11,1364.69,1366.48,1369.22,1370.29,1368.69,1369.53,1371.23,1371.62,1370.90,1371.54,1371.45,1371.17,1371.73,1374.78,1378.26,1379.67,1378.18,1378.35,1379.03,1379.16,1379.60,1379.65,1381.50,1380.09,1379.94,1379.59,1381.25,1382.66,1385.56,1384.97,1384.34,1382.58,1387.61,1388.90,1389.09,1385.33,1385.65,1384.26,1385.26,1386.63,1388.84,1387.89,1387.24,1388.13,1390.10,1391.32,1392.34,1392.09,1388.67,1386.42,1386.60,1389.71,1390.74,1390.62,1390.90,1391.55,1391.25,1390.50,1390.46,1391.01,1392.15,1391.52,1392.55,1391.83,1392.30,1394.02,1395.43,1395.93,1395.07,1396.10,1397.38,1395.82,1393.98,1392.32,1394.94,1396.21,1397.84,1394.09,1394.80,1394.71,1398.21,1396.87,1395.06,1394.07,1395.95,1399.14,1401.45,1401.19,1400.18,1399.92,1400.60,1401.06,1399.17,1398.93,1399.63,1400.05,1401.17,1400.22,1400.52,1398.86,1400.14,1401.02,1401.04,1401.54,1401.39,1401.50,1400.83,1402.18,1402.42,1402.52,1401.13,1401.77,1402.85,1402.73,1403.59,1403.35,1403.55,1403.11,1405.24,1407.62,1408.40,1407.91,1408.80,1407.18,1405.30,1404.09,1405.99,1406.27,1407.23,1408.04,1408.22,1406.69,1407.27,1410.12,1411.30,1410.06,1408.35,1407.61,1409.13,1408.13,1408.24,1407.49,1408.51,1409.18,1410.11,1410.59,1411.86,1411.93,1413.04,1413.33,1413.22,1413.67,1413.21,1414.17,1414.59,1413.85,1413.61,1412.99,1414.21,1414.85,1414.16,1415.59,1416.71,1419.85,1420.13,1418.61,1417.51,1416.28,1418.35,1419.22,1421.60,1422.16,1421.95,1419.42,1419.38,1419.96,1420.13,1418.18,1418.34,1420.01,1422.07,1421.54,1422.65,1421.58,1422.60,1423.34,1423.52,1425.55,1425.09,1427.24,1424.83,1425.24,1424.39,1426.09,1427.03,1428.59,1429.78,1428.46,1428.56,1428.97,1430.94,1430.97,1430.19,1429.78,1430.42,1430.15,1430.91,1430.37,1431.97,1432.26,1433.67,1433.74,1432.62,1431.56,1432.26,1434.45,1436.30,1434.74,1434.96,1435.85,1435.68,1434.71,1435.13,1437.33,1438.27,1437.03,1436.63,1437.16,1437.57,1439.39,1439.05,1440.77,1439.94,1441.91,1442.83,1443.47,1443.30,1441.65,1442.02,1443.26,1444.91,1443.98,1443.77,1445.59,1447.91,1447.47,1445.94,1446.46,1446.49,1444.99,1444.83,1444.46,1446.20,1446.51,1449.74,1450.09,1449.77,1448.73,1450.83,1451.97,1452.37,1453.08,1453.45,1453.25,1451.04,1449.99,1449.77,1450.28,1452.44,1454.49,1454.64,1455.31,1456.91,1458.13,1455.67,1454.68,1452.74,1454.86,1453.83,1454.86,1456.58,1456.62,1457.83,1457.02,1457.92,1455.92,1455.95,1454.86,1458.31,1456.99,0.00,0.00,0.00,0.00,0.00,0.00,0.00,0.00,0.00,0.00,0.00,0.00,0.00,0.00,0.00,0.00,0.00,0.00,0.00,0.00,0.00,0.00,0.00,0.00,0.00,0.00,0.00,0.00,0.00,0.00,0.00,0.00,0.00,0.00,0.00,0.00,0.00,0.00,0.00,0.00,0.00,0.00,0.00,0.00,0.00,0.00,0.00,0.00,0.00,0.00,0.00,0.00,0.00,0.00,0.00,0.00,0.00,0.00,0.00,0.00,0.00,0.00,0.00,0.00,0.00,0.00,0.00,0.00,0.00,0.00,0.00,0.00,0.00,0.00,0.00,0.00,0.00,0.00,0.00,0.00,0.00,0.00,0.00,0.00,0.00,0.00,0.00,0.00,0.00,0.00,0.00,0.00,0.00,0.00,0.00,0.00,0.00,0.00,0.00,0.00,0.00,0.00,0.00,0.00,0.00,0.00,0.00,0.00,0.00,0.00,0.00,0.00,0.00,0.00,0.00,0.00,0.00,0.00,0.00,0.00,0.00,0.00,0.00,0.00,0.00,0.00,0.00,0.00,0.00,0.00,0.00,0.00,0.00,0.00,0.00,0.00,0.00,0.00,0.00
0.00,0.00,0.00,0.00,0.00,0.00,0.00,0.00,0.00,0.00,0.00,0.00,0.00,0.00,0.00,0.00,0.00,0.00,0.00,0.00,0.00,0.00,1192.90,1216.87,1231.58,1249.24,1269.41,1286.36,1300.40,1307.36,1309.89,1307.14,1305.95,1300.71,1280.03,1239.34,1217.94,1222.23,1235.95,1248.16,1264.88,1282.79,1294.52,0.00,0.00,0.00,0.00,0.00,0.00,0.00,0.00,1340.75,1351.68,1356.11,1356.70,1355.33,1356.68,1358.04,1358.08,1357.74,1360.52,1358.72,1357.36,1359.23,1363.93,1365.32,1364.06,1363.37,1366.27,1368.28,1369.62,1370.64,1372.07,1373.38,1373.92,1373.66,1371.33,1371.44,1373.31,1377.41,1377.34,1377.67,1376.78,1378.75,1378.98,1378.83,1378.87,1379.30,1382.01,1381.09,1381.34,1380.36,1381.39,1381.52,1383.19,1384.28,1384.03,1382.68,1385.45,1386.60,1387.35,1385.30,1385.11,1385.54,1386.97,1390.75,1389.94,1390.10,1389.19,1391.19,1390.62,1390.73,1392.43,1391.88,1390.03,1386.49,1387.39,1388.98,1391.70,1391.45,1390.79,1390.62,1390.14,1390.92,1390.47,1391.09,1392.15,1393.79,1394.14,1393.71,1391.95,1393.98,1394.76,1396.42,1396.16,1396.83,1396.90,1396.36,1395.67,1395.36,1396.40,1397.17,1398.10,1396.57,1396.98,1396.22,1397.65,1396.64,1395.65,1395.02,1397.10,1400.16,1402.09,1401.39,1400.88,1401.03,1400.58,1400.40,1399.65,1400.43,1401.17,1400.48,1402.27,1401.13,1401.81,1399.91,1400.89,1400.71,1400.16,1399.90,1400.72,1402.52,1402.35,1403.30,1402.23,1402.54,1401.28,1402.70,1404.03,1404.53,1405.62,1405.10,1405.13,1403.23,1404.96,1406.52,1408.29,1408.82,1409.39,1407.71,1404.71,1403.84,1405.38,1407.11,1407.94,1408.68,1408.73,1407.62,1407.83,1408.81,1409.71,1409.06,1409.08,1409.57,1410.36,1408.77,1408.26,1408.71,1410.00,1410.60,1410.87,1410.91,1412.91,1412.77,1413.87,1413.16,1413.39,1414.02,1413.16,1413.57,1413.56,1413.56,1413.10,1413.53,1414.19,1415.01,1414.19,1414.56,1415.31,1417.59,1418.32,1418.59,1418.64,1418.50,1418.58,1418.72,1420.56,1422.31,1421.83,1419.34,1419.30,1421.04,1421.69,1419.80,1419.17,1420.84,1423.38,1423.43,1424.13,1422.45,1423.23,1424.03,1424.20,1426.24,1426.67,1428.27,1425.36,1425.22,1425.14,1426.39,1427.65,1428.25,1430.34,1427.60,1428.27,1428.69,1431.47,1431.49,1431.38,1430.26,1430.36,1429.44,1430.55,1429.86,1432.12,1434.28,1436.54,1435.82,1434.33,1432.53,1432.13,1433.85,1435.06,1436.30,1436.28,1438.52,1437.19,1436.85,1436.49,1437.89,1438.06,1437.71,1437.41,1438.84,1438.85,1440.91,1441.42,1444.00,1444.05,1444.06,1443.77,1442.67,1442.83,1441.88,1442.94,1443.75,1444.68,1444.15,1443.95,1445.48,1448.14,1448.43,1447.72,1448.33,1447.83,1446.76,1445.82,1446.41,1447.64,1447.92,1450.41,1450.76,1450.88,1450.14,1451.06,1452.59,1452.45,1454.25,1454.08,1454.36,1452.52,1451.42,1451.11,1451.42,1452.45,1453.52,1451.69,1453.54,1455.03,1457.93,1454.79,1452.84,1452.32,1454.32,1456.36,1456.04,1457.28,1457.38,1460.52,1459.48,1459.90,1457.59,1458.87,1457.39,1460.75,1460.07,0.00,0.00,0.00,0.00,0.00,0.00,0.00,0.00,0.00,0.00,0.00,0.00,0.00,0.00,0.00,0.00,0.00,0.00,0.00,0.00,0.00,0.00,0.00,0.00,0.00,0.00,0.00,0.00,0.00,0.00,0.00,0.00,0.00,0.00,0.00,0.00,0.00,0.00,0.00,0.00,0.00,0.00,0.00,0.00,0.00,0.00,0.00,0.00,0.00,0.00,0.00,0.00,0.00,0.00,0.00,0.00,0.00,0.00,0.00,0.00,0.00,0.00,0.00,0.00,0.00,0.00,0.00,0.00,0.00,0.00,0.00,0.00,0.00,0.00,0.00,0.00,0.00,0.00,0.00,0.00,0.00,0.00,0.00,0.00,0.00,0.00,0.00,0.00,0.00,0.00,0.00,0.00,0.00,0.00,0.00,0.00,0.00,0.00,0.00,0.00,0.00,0.00,0.00,0.00,0.00,0.00,0.00,0.00,0.00,0.00,0.00,0.00,0.00,0.00,0.00,0.00,0.00,0.00,0.00,0.00,0.00,0.00,0.00,0.00,0.00,0.00,0.00,0.00,0.00,0.00,0.00,0.00,0.00,0.00,0.00,0.00,0.00,0.00,0.00
0.00,0.00,0.00,0.00,0.00,0.00,0.00,0.00,0.00,0.00,0.00,0.00,0.00,0.00,0.00,0.00,0.00,0.00,0.00,0.00,0.00,0.00,1173.87,1204.15,1224.79,1244.21,1266.84,1283.55,1298.38,1310.08,1313.69,1315.26,1308.17,1296.82,1265.40,1220.21,1210.94,1218.67,1231.69,1246.34,1268.78,1284.64,1292.15,0.00,0.00,0.00,0.00,0.00,0.00,0.00,0.00,0.00,0.00,1354.57,1355.94,1356.35,1359.42,1361.21,1360.92,1363.24,1366.11,1367.34,1363.88,1363.57,1365.74,1368.26,1368.59,1365.88,1365.79,1366.70,1368.89,1371.30,1372.59,1376.52,1377.06,1377.95,1374.49,1376.21,1377.34,1382.74,1381.53,1381.11,1378.11,1379.20,1380.56,1381.76,1382.00,1382.96,1385.30,1385.06,1383.95,1383.15,1384.22,1385.39,1385.45,1387.83,1388.30,1388.42,1389.48,1389.86,1390.00,1388.22,1388.40,1389.55,1390.82,1392.42,1391.56,1393.29,1394.16,1396.04,1394.56,1395.14,1395.82,1394.43,1392.02,1390.46,1391.95,1393.46,1394.82,1395.07,1394.42,1394.67,1393.83,1394.20,1393.71,1394.83,1395.01,1396.66,1397.19,1397.32,1395.69,1394.99,1395.04,1396.00,1398.11,1399.60,1400.03,1400.35,1400.63,1400.72,1401.04,1401.17,1401.06,1400.77,1400.27,1398.42,1398.58,1399.49,1400.82,1399.24,1399.39,1401.45,1404.43,1404.86,1404.20,1403.79,1403.11,1403.23,1402.91,1403.92,1403.59,1403.28,1404.72,1405.33,1405.07,1403.74,1404.09,1402.76,1401.85,1400.53,1403.49,1405.71,1406.42,1407.29,1406.21,1407.54,1404.77,1406.04,1406.77,1408.28,1409.05,1408.36,1408.84,1407.79,1408.81,1408.86,1409.54,1410.30,1411.61,1410.65,1407.84,1406.92,1408.11,1410.90,1413.20,1414.30,1412.78,1411.18,1410.63,1411.78,1410.64,1411.69,1412.14,1414.18,1412.39,1410.87,1410.61,1412.74,1414.17,1414.86,1414.97,1414.77,1415.33,1414.21,1415.25,1415.51,1416.79,1417.16,1417.03,1417.32,1417.68,1417.54,1416.98,1416.91,1417.66,1419.33,1419.19,1419.23,1418.48,1419.14,1419.79,1421.68,1422.53,1422.77,1422.09,1421.79,1422.03,1423.16,1422.84,1422.84,1423.44,1425.69,1425.19,1423.41,1422.37,1424.02,1426.18,1427.27,1428.31,1427.32,1427.85,1427.93,1427.78,1427.95,1429.43,1430.03,1429.02,1427.35,1428.84,1428.87,1430.09,1429.17,1431.82,1430.46,1432.24,1432.44,1434.41,1434.30,1434.16,1433.54,1434.48,1434.98,1435.49,1434.33,1435.72,1438.06,1440.13,1439.11,1437.64,1435.61,1435.15,1436.62,1438.50,1441.22,1441.52,1442.38,1440.83,1440.31,1440.26,1441.03,1442.37,1442.64,1442.61,1441.97,1442.48,1442.54,1444.59,1445.62,1446.55,1445.08,1445.82,1445.46,1447.12,1446.77,1448.79,1448.50,1448.87,1447.50,1448.79,1448.36,1450.96,1451.49,1452.76,1452.55,1450.51,1449.74,1449.05,1450.80,1451.36,1452.16,1453.88,1453.36,1453.62,1452.63,1455.20,1456.02,1455.59,1454.98,1456.56,1457.84,1458.21,1454.79,1454.53,1454.37,1456.95,1456.69,1455.33,1455.54,1456.59,1457.02,1455.62,1454.68,1455.95,1456.41,1459.68,1459.22,1461.02,1459.93,1461.38,1460.73,1463.29,1463.37,1463.08,1459.38,1463.15,1464.44,1461.90,0.00,0.00,0.00,0.00,0.00,0.00,0.00,0.00,0.00,0.00,0.00,0.00,0.00,0.00,0.00,0.00,0.00,0.00,0.00,0.00,0.00,0.00,0.00,0.00,0.00,0.00,0.00,0.00,0.00,0.00,0.00,0.00,0.00,0.00,0.00,0.00,0.00,0.00,0.00,0.00,0.00,0.00,0.00,0.00,0.00,0.00,0.00,0.00,0.00,0.00,0.00,0.00,0.00,0.00,0.00,0.00,0.00,0.00,0.00,0.00,0.00,0.00,0.00,0.00,0.00,0.00,0.00,0.00,0.00,0.00,0.00,0.00,0.00,0.00,0.00,0.00,0.00,0.00,0.00,0.00,0.00,0.00,0.00,0.00,0.00,0.00,0.00,0.00,0.00,0.00,0.00,0.00,0.00,0.00,0.00,0.00,0.00,0.00,0.00,0.00,0.00,0.00,0.00,0.00,0.00,0.00,0.00,0.00,0.00,0.00,0.00,0.00,0.00,0.00,0.00,0.00,0.00,0.00,0.00,0.00,0.00,0.00,0.00,0.00,0.00,0.00,0.00,0.00,0.00,0.00,0.00,0.00,0.00,0.00,0.00,0.00,0.00,0.00
0.00,0.00,0.00,0.00,0.00,0.00,0.00,0.00,0.00,0.00,0.00,0.00,0.00,0.00,0.00,0.00,0.00,0.00,0.00,0.00,0.00,0.00,0.00,1194.81,1222.75,1246.50,1263.53,1279.52,1294.31,1305.06,1310.86,1311.76,1306.20,1287.85,1241.25,1206.98,1204.31,1215.28,1224.65,1243.51,1266.08,1283.63,0.00,0.00,0.00,0.00,0.00,0.00,0.00,0.00,0.00,0.00,0.00,0.00,1346.62,1350.78,1358.69,1363.07,1363.37,1365.23,1366.84,1369.45,1367.32,1367.28,1366.77,1367.91,1369.64,1368.59,1368.60,1367.87,1370.37,1372.45,1372.60,1375.05,1375.88,1377.89,1375.93,1377.70,1379.47,1382.88,1380.27,1378.77,1376.56,1378.68,1378.83,1381.38,1383.11,1385.91,1386.78,1385.89,1385.04,1385.64,1385.93,1386.19,1384.95,1387.76,1388.36,1389.66,1390.76,1392.99,1393.53,1391.30,1390.11,1390.03,1391.46,1391.06,1390.21,1391.16,1393.83,1396.74,1396.51,1396.36,1395.81,1395.49,1394.53,1393.61,1394.42,1394.50,1395.51,1394.55,1393.93,1393.81,1392.99,1393.98,1394.15,1396.25,1395.99,1398.04,1397.73,1397.20,1394.86,1394.08,1394.56,1396.45,1399.29,1399.91,1399.80,1400.48,1402.48,1402.53,1401.15,1399.66,1398.93,1400.38,1401.42,1400.94,1400.16,1399.86,1400.71,1399.96,1401.59,1403.15,1406.15,1405.80,1404.93,1402.97,1402.94,1403.33,1404.57,1404.49,1404.92,1404.93,1405.32,1404.87,1404.53,1405.42,1406.07,1404.35,1402.14,1401.35,1404.91,1408.43,1408.19,1406.78,1406.10,1408.28,1407.67,1407.97,1407.23,1407.08,1407.35,1407.01,1407.77,1406.94,1408.15,1408.10,1408.26,1408.01,1408.80,1408.43,1407.98,1408.74,1408.80,1411.01,1411.39,1413.47,1413.07,1413.08,1412.07,1411.60,1411.13,1412.86,1413.98,1415.30,1413.43,1412.74,1412.18,1413.76,1413.89,1414.86,1415.13,1415.95,1416.52,1416.38,1416.36,1416.93,1417.58,1418.13,1418.37,1418.52,1417.92,1417.09,1416.97,1418.36,1419.52,1420.30,1420.39,1419.78,1419.32,1418.52,1419.08,1421.03,1422.77,1422.03,1422.32,1421.35,1422.86,1423.18,1423.41,1423.50,1423.41,1425.71,1425.44,1424.76,1423.64,1424.32,1424.87,1426.18,1427.51,1428.07,1428.14,1427.58,1426.72,1426.53,1429.26,1430.09,1430.64,1428.16,1430.31,1428.91,1430.25,1429.63,1431.92,1430.89,1431.66,1431.75,1433.64,1434.61,1435.32,1435.90,1436.50,1437.21,1436.44,1435.24,1436.55,1437.99,1439.29,1438.57,1438.17,1438.35,1438.29,1439.48,1439.64,1441.44,1442.05,1442.11,1441.89,1442.51,1443.25,1442.47,1442.43,1442.94,1443.41,1443.51,1443.42,1444.59,1445.78,1446.44,1447.14,1446.27,1446.43,1445.11,1446.48,1447.37,1449.41,1449.12,1449.34,1448.02,1449.20,1448.56,1450.84,1452.08,1452.43,1451.85,1449.77,1451.23,1451.86,1454.65,1454.47,1454.29,1454.83,1454.75,1455.37,1455.22,1457.57,1457.74,1455.92,1455.25,1455.98,1458.19,1458.05,1457.70,1456.97,1457.19,1458.20,1457.67,1455.36,1455.78,1455.41,1456.21,1454.66,1455.80,1457.40,1459.54,1462.57,1462.28,1461.87,1460.18,1460.95,1459.96,1461.79,1461.02,1461.76,1460.68,1461.63,1462.65,0.00,0.00,0.00,0.00,0.00,0.00,0.00,0.00,0.00,0.00,0.00,0.00,0.00,0.00,0.00,0.00,0.00,0.00,0.00,0.00,0.00,0.00,0.00,0.00,0.00,0.00,0.00,0.00,0.00,0.00,0.00,0.00,0.00,0.00,0.00,0.00,0.00,0.00,0.00,0.00,0.00,0.00,0.00,0.00,0.00,0.00,0.00,0.00,0.00,0.00,0.00,0.00,0.00,0.00,0.00,0.00,0.00,0.00,0.00,0.00,0.00,0.00,0.00,0.00,0.00,0.00,0.00,0.00,0.00,0.00,0.00,0.00,0.00,0.00,0.00,0.00,0.00,0.00,0.00,0.00,0.00,0.00,0.00,0.00,0.00,0.00,0.00,0.00,0.00,0.00,0.00,0.00,0.00,0.00,0.00,0.00,0.00,0.00,0.00,0.00,0.00,0.00,0.00,0.00,0.00,0.00,0.00,0.00,0.00,0.00,0.00,0.00,0.00,0.00,0.00,0.00,0.00,0.00,0.00,0.00,0.00,0.00,0.00,0.00,0.00,0.00,0.00,0.00,0.00,0.00,0.00,0.00,0.00,0.00,0.00,0.00,0.00,0.00,0.00
0.00,0.00,0.00,0.00,0.00,0.00,0.00,0.00,0.00,0.00,0.00,0.00,0.00,0.00,0.00,0.00,0.00,0.00,0.00,0.00,0.00,0.00,0.00,0.00,1224.69,1250.91,1261.64,1269.49,1284.13,1301.14,1308.52,1311.46,1299.66,1270.92,1210.29,1197.82,1204.46,1217.22,1230.57,1247.87,1273.25,1290.31,0.00,0.00,0.00,0.00,0.00,0.00,0.00,0.00,0.00,0.00,0.00,0.00,0.00,1347.64,1355.24,1360.53,1363.20,1364.66,1366.43,1368.35,1368.95,1369.11,1369.17,1371.47,1373.70,1372.96,1370.57,1370.13,1371.50,1374.81,1375.73,1378.27,1377.28,1379.74,1378.69,1383.15,1383.03,1387.65,1383.65,1383.25,1379.70,1381.41,1381.30,1383.91,1386.78,1389.28,1389.67,1387.35,1387.01,1388.00,1389.02,1389.79,1389.54,1391.28,1391.89,1393.44,1394.89,1396.55,1395.99,1394.37,1393.51,1392.42,1392.97,1390.93,1391.30,1391.54,1394.53,1397.63,1399.20,1401.52,1400.38,1399.60,1397.31,1397.22,1398.23,1397.70,1398.41,1397.82,1398.00,1397.68,1395.88,1396.46,1397.43,1399.74,1399.57,1399.93,1399.91,1399.11,1398.43,1398.30,1399.73,1400.79,1402.40,1401.56,1402.64,1402.63,1404.52,1403.89,1403.70,1403.71,1402.70,1403.98,1404.12,1403.95,1403.67,1403.69,1404.21,1402.47,1402.67,1403.66,1407.01,1407.55,1407.83,1406.41,1407.04,1407.14,1407.14,1406.42,1407.26,1408.23,1408.95,1407.95,1407.48,1409.12,1409.74,1407.84,1404.99,1405.23,1409.25,1411.75,1411.11,1408.89,1408.98,1411.28,1411.83,1411.95,1411.52,1410.64,1409.78,1409.47,1409.42,1409.38,1410.22,1412.41,1412.43,1411.86,1412.05,1412.53,1413.35,1413.81,1413.88,1415.24,1414.84,1416.21,1414.32,1414.79,1414.47,1415.84,1415.64,1416.58,1417.15,1417.79,1416.98,1416.51,1416.55,1416.40,1416.37,1416.44,1417.02,1418.45,1418.44,1418.40,1418.26,1419.40,1420.38,1420.94,1422.15,1422.14,1421.30,1420.42,1420.80,1421.89,1422.89,1423.88,1424.01,1424.40,1423.91,1424.82,1424.48,1425.18,1425.82,1424.34,1425.85,1424.46,1426.20,1425.95,1425.94,1427.00,1426.71,1429.74,1428.41,1428.02,1426.59,1427.01,1427.76,1429.42,1431.11,1431.56,1431.34,1430.55,1430.46,1430.53,1432.42,1432.48,1433.03,1431.80,1432.50,1431.81,1433.21,1433.51,1434.84,1434.35,1435.08,1435.43,1437.45,1438.04,1439.18,1439.60,1441.07,1441.57,1440.25,1439.27,1439.06,1439.17,1440.47,1440.94,1441.57,1441.42,1441.97,1443.30,1443.71,1443.83,1443.79,1442.84,1443.72,1444.86,1446.57,1445.43,1446.35,1446.78,1448.52,1447.30,1446.75,1447.61,1448.43,1449.00,1449.25,1449.04,1449.64,1449.09,1450.72,1451.40,1453.19,1452.62,1454.03,1452.52,1454.50,1453.40,1454.94,1455.00,1455.48,1454.95,1453.70,1454.74,1455.57,1457.73,1456.97,1457.37,1457.52,1456.69,1457.16,1457.39,1461.59,1461.56,1459.75,1457.52,1457.82,1460.15,1461.82,1462.64,1461.49,1461.24,1462.20,1462.25,1461.19,1459.28,1459.21,1458.83,1460.35,1462.03,1463.11,1462.94,1462.76,1463.41,1463.96,1463.38,1461.98,1460.51,1462.60,1463.14,1463.83,1462.45,1462.74,1462.96,1462.83,1463.45,0.00,0.00,0.00,0.00,0.00,0.00,0.00,0.00,0.00,0.00,0.00,0.00,0.00,0.00,0.00,0.00,0.00,0.00,0.00,0.00,0.00,0.00,0.00,0.00,0.00,0.00,0.00,0.00,0.00,0.00,0.00,0.00,0.00,0.00,0.00,0.00,0.00,0.00,0.00,0.00,0.00,0.00,0.00,0.00,0.00,0.00,0.00,0.00,0.00,0.00,0.00,0.00,0.00,0.00,0.00,0.00,0.00,0.00,0.00,0.00,0.00,0.00,0.00,0.00,0.00,0.00,0.00,0.00,0.00,0.00,0.00,0.00,0.00,0.00,0.00,0.00,0.00,0.00,0.00,0.00,0.00,0.00,0.00,0.00,0.00,0.00,0.00,0.00,0.00,0.00,0.00,0.00,0.00,0.00,0.00,0.00,0.00,0.00,0.00,0.00,0.00,0.00,0.00,0.00,0.00,0.00,0.00,0.00,0.00,0.00,0.00,0.00,0.00,0.00,0.00,0.00,0.00,0.00,0.00,0.00,0.00,0.00,0.00,0.00,0.00,0.00,0.00,0.00,0.00,0.00,0.00,0.00,0.00,0.00,0.00,0.00,0.00
0.00,0.00,0.00,0.00,0.00,0.00,0.00,0.00,0.00,0.00,0.00,0.00,0.00,0.00,0.00,0.00,0.00,0.00,0.00,0.00,0.00,0.00,0.00,0.00,0.00,1251.75,1258.03,1266.54,1275.09,1287.11,1300.06,1301.59,1289.86,1235.17,1197.70,1189.93,1199.70,1215.65,1230.15,1251.22,1273.68,1291.55,0.00,0.00,0.00,0.00,0.00,0.00,0.00,0.00,0.00,0.00,0.00,0.00,0.00,0.00,1355.16,1359.04,1361.95,1360.08,1360.49,1363.15,1365.89,1366.57,1364.70,1365.49,1367.19,1370.36,1371.98,1372.99,1374.23,1376.47,1376.93,1378.24,1376.53,1378.67,1377.61,1382.08,1383.14,1387.31,1385.60,1385.73,1384.21,1385.87,1384.13,1385.63,1387.81,1390.58,1390.82,1388.44,1389.62,1390.80,1391.35,1390.16,1388.60,1387.90,1387.44,1390.39,1392.10,1394.58,1394.26,1394.14,1394.11,1392.46,1394.13,1392.36,1391.40,1390.53,1393.50,1397.04,1398.79,1398.98,1397.91,1398.15,1396.80,1395.53,1396.34,1396.19,1397.82,1397.21,1397.92,1398.26,1396.39,1396.16,1397.77,1398.87,1401.04,1401.09,1401.48,1399.38,1398.99,1399.73,1402.11,1403.06,1403.58,1401.53,1402.66,1402.17,1403.93,1402.97,1403.93,1404.98,1404.09,1404.62,1403.62,1405.60,1404.16,1404.29,1403.77,1403.63,1403.18,1403.93,1406.44,1407.45,1407.76,1406.67,1407.41,1406.95,1407.50,1406.77,1408.27,1409.25,1409.88,1409.13,1408.56,1409.69,1409.62,1408.09,1406.29,1407.72,1410.86,1411.98,1411.79,1410.27,1411.36,1411.83,1412.05,1412.67,1412.72,1411.81,1410.00,1409.47,1410.24,1409.73,1411.27,1413.87,1415.31,1413.58,1411.82,1411.68,1413.18,1415.38,1415.70,1416.68,1414.41,1415.00,1413.57,1415.08,1415.81,1416.79,1416.91,1417.11,1417.05,1417.38,1418.24,1419.06,1418.91,1417.27,1416.33,1416.62,1417.00,1418.79,1418.93,1420.26,1418.93,1419.67,1419.44,1421.95,1422.20,1422.07,1419.77,1419.50,1420.46,1421.85,1423.12,1422.56,1422.98,1423.33,1424.56,1425.90,1425.44,1425.55,1426.26,1424.35,1424.93,1423.41,1426.54,1426.88,1427.33,1427.44,1426.85,1428.70,1428.93,1429.47,1428.64,1427.75,1429.12,1430.48,1431.77,1431.05,1431.08,1430.84,1431.63,1432.45,1433.18,1432.89,1433.41,1433.90,1434.21,1433.43,1434.83,1435.55,1435.92,1435.74,1435.71,1436.75,1438.28,1439.51,1440.59,1440.94,1441.22,1440.76,1439.11,1438.91,1438.56,1438.53,1439.75,1441.41,1442.23,1441.90,1441.67,1442.67,1442.87,1443.18,1443.46,1443.00,1443.95,1444.71,1445.90,1445.22,1445.52,1447.26,1448.37,1448.28,1447.32,1448.81,1448.97,1448.74,1448.58,1450.38,1451.58,1450.12,1449.77,1451.02,1452.65,1452.88,1453.52,1454.26,1455.47,1455.46,1455.14,1455.14,1453.79,1455.19,1455.12,1457.16,1456.94,1457.92,1456.74,1457.35,1457.61,1458.41,1457.83,1458.38,1459.79,1461.25,1460.10,1459.53,1458.42,1460.89,1461.66,1463.00,1462.20,1462.61,1462.63,1462.28,1461.43,1461.07,1460.76,1460.68,1460.48,1462.95,1462.91,1464.33,1463.77,1465.29,1465.03,1465.05,1465.43,1463.85,1463.36,1462.90,1464.74,1463.60,1462.11,1460.37,1460.30,0.00,0.00,0.00,0.00,0.00,0.00,0.00,0.00,0.00,0.00,0.00,0.00,0.00,0.00,0.00,0.00,0.00,0.00,0.00,0.00,0.00,0.00,0.00,0.00,0.00,0.00,0.00,0.00,0.00,0.00,0.00,0.00,0.00,0.00,0.00,0.00,0.00,0.00,0.00,0.00,0.00,0.00,0.00,0.00,0.00,0.00,0.00,0.00,0.00,0.00,0.00,0.00,0.00,0.00,0.00,0.00,0.00,0.00,0.00,0.00,0.00,0.00,0.00,0.00,0.00,0.00,0.00,0.00,0.00,0.00,0.00,0.00,0.00,0.00,0.00,0.00,0.00,0.00,0.00,0.00,0.00,0.00,0.00,0.00,0.00,0.00,0.00,0.00,0.00,0.00,0.00,0.00,0.00,0.00,0.00,0.00,0.00,0.00,0.00,0.00,0.00,0.00,0.00,0.00,0.00,0.00,0.00,0.00,0.00,0.00,0.00,0.00,0.00,0.00,0.00,0.00,0.00,0.00,0.00,0.00,0.00,0.00,0.00,0.00,0.00,0.00,0.00,0.00,0.00,0.00,0.00,0.00,0.00,0.00,0.00,0.00,0.00,0.00
0.00,0.00,0.00,0.00,0.00,0.00,0.00,0.00,0.00,0.00,0.00,0.00,0.00,0.00,0.00,0.00,0.00,0.00,0.00,0.00,0.00,0.00,0.00,0.00,0.00,1216.13,1258.05,1267.79,1273.31,1277.52,1290.50,1293.35,1267.19,1215.67,1193.73,1191.45,1199.31,1216.34,1236.43,1262.17,1281.49,0.00,0.00,0.00,0.00,0.00,0.00,0.00,0.00,0.00,0.00,0.00,0.00,0.00,0.00,0.00,1357.95,1360.78,1361.52,1357.15,1357.59,1359.49,1365.78,1362.13,1358.50,1358.81,1362.80,1368.60,1372.75,1374.88,1377.02,1378.84,1380.60,1381.14,1380.52,1381.82,1381.39,1384.80,1384.76,1388.85,1388.34,1389.28,1388.30,1389.72,1389.85,1389.41,1390.95,1392.84,1392.27,1389.63,1389.43,1393.65,1395.80,1396.59,1393.20,1392.07,1390.07,1393.21,1392.01,1393.75,1394.61,1397.82,1399.53,1397.49,1398.27,1396.22,1395.40,1394.82,1396.84,1399.15,1400.26,1401.15,1400.34,1400.48,1399.62,1399.94,1400.36,1400.52,1400.84,1399.86,1399.99,1400.55,1400.92,1399.95,1400.86,1401.02,1403.72,1403.09,1403.46,1402.56,1403.56,1403.29,1404.06,1405.17,1406.02,1404.90,1406.06,1405.23,1406.10,1405.04,1406.21,1408.37,1407.91,1408.48,1406.11,1407.32,1406.02,1408.18,1408.25,1407.98,1406.08,1405.85,1407.38,1408.50,1409.84,1409.98,1411.55,1410.39,1410.99,1409.44,1411.02,1411.28,1412.42,1411.70,1411.65,1411.64,1411.99,1410.17,1409.33,1410.38,1413.55,1414.69,1414.93,1414.14,1414.33,1414.20,1414.15,1414.68,1415.62,1414.73,1413.68,1413.21,1414.29,1414.32,1415.37,1417.66,1419.15,1418.30,1416.78,1416.18,1416.58,1418.71,1419.71,1422.13,1420.20,1420.55,1417.46,1418.87,1419.89,1420.74,1419.95,1419.33,1420.31,1420.43,1420.93,1421.09,1421.54,1419.66,1418.59,1418.55,1419.54,1421.92,1422.35,1423.02,1422.31,1422.80,1423.82,1424.90,1425.07,1424.31,1423.73,1424.20,1424.54,1425.30,1425.28,1424.87,1424.71,1426.11,1428.18,1430.28,1429.76,1430.09,1430.90,1429.84,1429.25,1427.78,1430.02,1430.42,1431.23,1431.87,1431.15,1432.18,1432.26,1434.02,1433.42,1432.31,1433.63,1434.52,1436.13,1434.38,1434.28,1433.90,1436.26,1436.60,1436.73,1435.79,1436.61,1437.26,1437.57,1437.53,1439.11,1438.97,1438.25,1438.18,1438.97,1440.71,1441.90,1442.45,1443.42,1442.20,1442.10,1441.14,1441.45,1442.07,1442.32,1442.76,1443.59,1444.71,1445.19,1443.46,1443.17,1444.36,1446.44,1447.60,1446.73,1445.69,1445.04,1446.17,1449.02,1449.67,1450.19,1449.90,1451.94,1451.55,1451.84,1450.92,1451.80,1451.09,1451.87,1453.55,1454.76,1454.71,1453.73,1454.31,1455.27,1455.41,1456.62,1457.69,1459.57,1459.93,1459.08,1457.98,1456.65,1457.88,1459.21,1459.90,1459.12,1459.22,1459.12,1460.54,1460.66,1461.15,1460.55,1460.55,1461.70,1462.97,1462.82,1461.07,1460.68,1463.60,1464.67,1463.43,1461.90,1464.16,1465.68,1464.87,1464.93,1465.67,1466.76,1464.58,1464.57,1465.25,1465.39,1464.92,1464.73,1465.79,1466.78,1469.45,1470.64,1468.81,1466.77,1467.98,1470.48,1469.26,1466.68,1465.66,1466.66,1468.05,0.00,0.00,0.00,0.00,0.00,0.00,0.00,0.00,0.00,0.00,0.00,0.00,0.00,0.00,0.00,0.00,0.00,0.00,0.00,0.00,0.00,0.00,0.00,0.00,0.00,0.00,0.00,0.00,0.00,0.00,0.00,0.00,0.00,0.00,0.00,0.00,0.00,0.00,0.00,0.00,0.00,0.00,0.00,0.00,0.00,0.00,0.00,0.00,0.00,0.00,0.00,0.00,0.00,0.00,0.00,0.00,0.00,0.00,0.00,0.00,0.00,0.00,0.00,0.00,0.00,0.00,0.00,0.00,0.00,0.00,0.00,0.00,0.00,0.00,0.00,0.00,0.00,0.00,0.00,0.00,0.00,0.00,0.00,0.00,0.00,0.00,0.00,0.00,0.00,0.00,0.00,0.00,0.00,0.00,0.00,0.00,0.00,0.00,0.00,0.00,0.00,0.00,0.00,0.00,0.00,0.00,0.00,0.00,0.00,0.00,0.00,0.00,0.00,0.00,0.00,0.00,0.00,0.00,0.00,0.00,0.00,0.00,0.00,0.00,0.00,0.00,0.00,0.00,0.00,0.00,0.00,0.00,0.00,0.00,0.00,0.00,0.00
0.00,0.00,0.00,0.00,0.00,0.00,0.00,0.00,1026.42,1011.57,1028.67,0.00,0.00,0.00,0.00,0.00,0.00,0.00,0.00,0.00,0.00,0.00,0.00,0.00,0.00,0.00,1251.24,1267.38,1270.11,1270.16,1278.46,1272.11,1230.74,1197.81,1188.03,1190.20,1200.34,1214.32,1235.93,1260.97,1281.35,0.00,0.00,0.00,0.00,0.00,0.00,0.00,0.00,0.00,0.00,0.00,0.00,0.00,0.00,0.00,0.00,1365.52,0.00,0.00,0.00,0.00,0.00,0.00,0.00,0.00,1351.87,1365.55,1373.30,1374.68,1377.31,1377.88,1379.52,1379.59,1380.72,1382.83,1382.09,1383.14,1384.04,1387.19,1387.75,1386.58,1387.30,1389.34,1390.71,1390.52,1390.33,1392.94,1392.08,1391.06,1390.84,1395.55,1397.48,1398.48,1394.92,1392.63,1389.07,1390.19,1391.56,1394.31,1396.13,1398.31,1399.81,1399.56,1400.41,1399.15,1397.30,1397.54,1398.70,1399.99,1399.20,1398.60,1398.41,1400.05,1401.04,1402.34,1401.02,1401.56,1401.11,1401.75,1403.08,1404.59,1404.94,1401.64,1401.84,1401.19,1404.19,1403.79,1404.63,1404.62,1404.86,1404.93,1404.27,1404.87,1404.26,1403.72,1404.24,1404.96,1406.41,1405.99,1406.78,1407.43,1406.73,1406.78,1405.55,1407.49,1406.75,1408.65,1409.38,1409.86,1408.31,1407.14,1407.98,1408.55,1409.18,1409.02,1410.83,1410.34,1411.00,1409.04,1409.53,1409.95,1412.04,1412.42,1412.51,1411.66,1412.66,1411.86,1412.29,1412.25,1414.32,1414.95,1416.27,1416.06,1416.65,1415.69,1415.44,1415.99,1415.61,1414.85,1412.88,1413.06,1414.02,1414.53,1415.89,1416.40,1418.33,1417.17,1416.95,1415.99,1416.60,1418.84,1419.32,1421.67,1420.41,1421.19,1420.06,1421.09,1421.99,1420.84,1419.46,1418.75,1419.67,1420.26,1420.89,1422.78,1422.38,1421.76,1420.90,1422.41,1422.54,1423.49,1423.72,1424.36,1422.78,1423.65,1425.10,1426.38,1424.50,1423.04,1423.30,1423.99,1424.78,1425.66,1426.39,1425.37,1424.60,1425.18,1427.00,1428.32,1428.82,1429.43,1430.46,1429.96,1430.22,1429.88,1431.43,1430.96,1431.75,1432.60,1432.74,1433.27,1433.39,1433.89,1433.61,1433.29,1434.29,1434.59,1435.64,1435.22,1434.98,1434.36,1435.53,1436.14,1436.62,1436.54,1436.45,1436.98,1437.93,1439.03,1440.17,1440.52,1439.83,1440.33,1440.64,1441.56,1441.35,1441.41,1442.49,1441.91,1442.22,1441.98,1442.63,1442.81,1443.96,1444.68,1444.83,1444.83,1444.89,1444.23,1445.15,1446.26,1448.22,1449.19,1448.93,1447.83,1446.54,1446.78,1449.42,1450.77,1451.77,1451.15,1451.52,1451.10,1452.22,1451.88,1452.35,1451.06,1451.73,1454.00,1455.22,1455.92,1454.91,1456.72,1456.58,1457.48,1456.76,1458.10,1458.18,1459.21,1458.09,1458.07,1455.94,1457.29,1458.66,1459.89,1459.54,1459.21,1460.45,1461.45,1462.36,1462.59,1462.16,1461.40,1461.65,1462.00,1461.93,1460.71,1460.93,1463.72,1464.34,1462.31,1461.09,1463.04,1465.83,1465.46,1465.05,1466.39,1466.68,1465.96,1465.27,1466.46,1467.50,1468.85,1469.12,1468.38,1468.23,1471.38,1474.30,1472.83,1470.05,1469.46,1469.66,1467.96,1466.77,1466.96,1467.78,1467.88,0.00,0.00,0.00,0.00,0.00,0.00,0.00,0.00,0.00,0.00,0.00,0.00,0.00,0.00,0.00,0.00,0.00,0.00,0.00,0.00,0.00,0.00,0.00,0.00,0.00,0.00,0.00,0.00,0.00,0.00,0.00,0.00,0.00,0.00,0.00,0.00,0.00,0.00,0.00,0.00,0.00,0.00,0.00,0.00,0.00,0.00,0.00,0.00,0.00,0.00,0.00,0.00,0.00,0.00,0.00,0.00,0.00,0.00,0.00,0.00,0.00,0.00,0.00,0.00,0.00,0.00,0.00,0.00,0.00,0.00,0.00,0.00,0.00,0.00,0.00,0.00,0.00,0.00,0.00,0.00,0.00,0.00,0.00,0.00,0.00,0.00,0.00,0.00,0.00,0.00,0.00,0.00,0.00,0.00,0.00,0.00,0.00,0.00,0.00,0.00,0.00,0.00,0.00,0.00,0.00,0.00,0.00,0.00,0.00,0.00,0.00,0.00,0.00,0.00,0.00,0.00,0.00,0.00,0.00,0.00,0.00,0.00,0.00,0.00,0.00,0.00,0.00,0.00,0.00,0.00,0.00,0.00,0.00,0.00,0.00,0.00,0.00
0.00,0.00,0.00,0.00,0.00,0.00,0.00,0.00,1024.35,1005.34,1014.27,0.00,0.00,0.00,0.00,0.00,0.00,0.00,0.00,0.00,0.00,0.00,0.00,0.00,0.00,0.00,0.00,1257.71,1266.89,1268.30,1271.15,1256.64,1219.22,1191.02,1184.21,1190.00,1203.77,1221.70,1240.94,1264.06,1281.09,0.00,0.00,0.00,0.00,0.00,0.00,0.00,0.00,0.00,0.00,0.00,0.00,0.00,0.00,0.00,0.00,0.00,0.00,0.00,0.00,0.00,0.00,0.00,0.00,0.00,0.00,0.00,0.00,1376.08,1376.73,1377.71,1380.64,1382.81,1384.04,1385.80,1386.43,1389.20,1388.62,1389.41,1387.77,1387.94,1389.03,1391.67,1392.84,1394.17,1394.16,1395.95,1393.96,1393.43,1393.10,1396.47,1398.02,1399.27,1400.24,1400.34,1397.66,1396.34,1396.75,1398.71,1400.22,1400.91,1401.44,1401.53,1401.92,1402.52,1400.21,1401.74,1401.57,1403.50,1402.46,1402.04,1400.73,1402.65,1405.15,1408.25,1406.41,1405.49,1404.63,1405.62,1407.76,1408.29,1408.22,1404.88,1405.01,1405.97,1407.33,1408.20,1408.58,1410.23,1409.07,1408.47,1406.64,1407.38,1406.35,1406.88,1407.26,1408.98,1409.23,1408.60,1408.39,1409.50,1410.64,1410.64,1410.20,1410.27,1410.57,1411.49,1412.08,1412.40,1412.01,1410.99,1411.24,1412.28,1412.68,1413.25,1414.11,1413.92,1414.24,1411.62,1412.36,1411.98,1415.98,1416.03,1417.27,1414.73,1416.54,1415.67,1416.38,1415.29,1416.49,1418.10,1418.68,1418.71,1418.64,1418.22,1417.85,1416.60,1416.77,1416.15,1415.95,1416.94,1418.05,1419.27,1419.46,1419.99,1421.16,1420.28,1420.85,1420.47,1421.53,1422.80,1422.02,1423.57,1423.08,1425.05,1424.33,1424.89,1424.39,1422.18,1421.03,1421.35,1423.65,1423.58,1424.95,1425.72,1426.67,1425.25,1424.98,1425.03,1425.66,1426.74,1427.10,1427.09,1426.17,1427.43,1429.43,1429.16,1428.37,1426.77,1428.64,1429.03,1430.26,1430.18,1430.84,1430.92,1429.45,1429.55,1430.02,1432.10,1433.00,1433.19,1432.06,1432.56,1434.26,1435.57,1435.70,1434.80,1435.63,1436.06,1436.43,1437.72,1437.03,1436.94,1436.80,1437.44,1437.52,1436.58,1436.97,1437.75,1438.47,1438.99,1439.98,1439.34,1440.04,1438.97,1439.26,1439.22,1440.67,1441.93,1443.29,1443.68,1443.10,1443.56,1444.28,1444.46,1443.30,1443.68,1445.02,1444.72,1445.29,1445.44,1446.47,1446.96,1449.02,1449.97,1449.44,1448.51,1447.83,1447.04,1448.04,1449.28,1451.59,1452.16,1452.98,1452.31,1451.29,1451.08,1453.86,1455.38,1456.84,1454.46,1454.39,1453.94,1455.93,1455.59,1455.89,1455.47,1455.69,1456.78,1457.50,1459.85,1459.98,1460.96,1460.50,1460.69,1460.79,1460.83,1460.46,1461.28,1462.06,1462.41,1460.99,1460.85,1462.91,1463.42,1464.11,1463.67,1465.21,1465.18,1465.74,1465.22,1465.34,1464.93,1465.89,1466.43,1465.54,1464.46,1463.84,1466.57,1466.50,1465.60,1465.12,1467.53,1470.96,1470.55,1469.89,1469.48,1471.31,1470.94,1471.58,1469.89,1471.71,1472.12,1472.79,1472.03,1470.66,1473.59,1473.27,1473.26,1471.45,1473.83,1473.40,1473.17,1472.30,1474.61,1473.41,1474.14,1471.84,1471.93,1472.57,0.00,0.00,0.00,0.00,0.00,0.00,0.00,0.00,0.00,0.00,0.00,0.00,0.00,0.00,0.00,0.00,0.00,0.00,0.00,0.00,0.00,0.00,0.00,0.00,0.00,0.00,0.00,0.00,0.00,0.00,0.00,0.00,0.00,0.00,0.00,0.00,0.00,0.00,0.00,0.00,0.00,0.00,0.00,0.00,0.00,0.00,0.00,0.00,0.00,0.00,0.00,0.00,0.00,0.00,0.00,0.00,0.00,0.00,0.00,0.00,0.00,0.00,0.00,0.00,0.00,0.00,0.00,0.00,0.00,0.00,0.00,0.00,0.00,0.00,0.00,0.00,0.00,0.00,0.00,0.00,0.00,0.00,0.00,0.00,0.00,0.00,0.00,0.00,0.00,0.00,0.00,0.00,0.00,0.00,0.00,0.00,0.00,0.00,0.00,0.00,0.00,0.00,0.00,0.00,0.00,0.00,0.00,0.00,0.00,0.00,0.00,0.00,0.00,0.00,0.00,0.00,0.00,0.00,0.00,0.00,0.00,0.00,0.00,0.00,0.00,0.00,0.00,0.00,0.00,0.00,0.00,0.00,0.00,0.00
0.00,0.00,0.00,0.00,0.00,0.00,0.00,0.00,0.00,1012.74,1014.28,1038.55,0.00,0.00,0.00,0.00,0.00,0.00,0.00,0.00,0.00,0.00,0.00,0.00,0.00,0.00,0.00,1248.62,1260.75,1267.43,1270.44,1257.81,1221.80,1192.27,1182.59,1188.08,1204.54,1222.50,1244.62,1263.11,1282.98,0.00,0.00,0.00,0.00,0.00,0.00,0.00,0.00,0.00,0.00,0.00,0.00,0.00,0.00,0.00,0.00,0.00,0.00,0.00,0.00,0.00,0.00,0.00,0.00,0.00,0.00,0.00,0.00,0.00,1372.88,1373.92,1379.46,1384.12,1385.44,1385.31,1386.22,1389.09,1388.98,1389.36,1387.80,1390.51,1391.68,1393.52,1393.31,1395.14,1396.04,1396.27,1394.79,1394.76,1395.62,1396.16,1396.52,1397.01,1399.62,1399.48,1398.06,1395.84,1398.44,1399.30,1400.22,1399.08,1399.26,1399.37,1400.65,1402.39,1401.98,1402.70,1401.91,1403.30,1403.81,1402.78,1401.32,1401.84,1404.16,1405.97,1405.34,1405.09,1404.95,1407.22,1409.52,1408.85,1406.94,1405.37,1407.20,1407.33,1406.74,1408.26,1409.55,1411.64,1409.24,1409.20,1408.54,1409.33,1407.75,1407.28,1407.04,1409.06,1409.84,1409.63,1409.56,1409.38,1411.10,1410.79,1411.26,1411.02,1411.53,1412.03,1411.75,1412.02,1412.37,1413.10,1413.95,1413.81,1413.44,1413.11,1413.72,1413.15,1413.17,1411.63,1412.15,1412.44,1415.85,1416.42,1416.78,1414.73,1417.08,1418.10,1419.40,1417.93,1417.11,1417.98,1418.89,1418.92,1418.57,1417.99,1418.04,1416.54,1415.34,1415.18,1415.72,1417.79,1419.02,1419.60,1419.93,1420.67,1420.84,1418.98,1419.40,1420.34,1422.59,1423.23,1423.03,1423.38,1422.98,1423.22,1422.81,1423.95,1424.38,1423.48,1421.90,1422.05,1423.28,1423.36,1425.33,1425.90,1427.65,1426.36,1426.76,1426.01,1426.41,1427.09,1427.35,1427.73,1426.26,1427.85,1429.40,1430.18,1429.06,1427.82,1428.68,1428.38,1429.69,1429.88,1431.62,1431.82,1431.38,1430.59,1430.89,1431.88,1433.36,1432.70,1432.35,1432.64,1434.44,1435.60,1435.26,1435.48,1435.31,1435.89,1436.66,1438.22,1438.79,1437.68,1437.50,1437.34,1437.93,1437.26,1436.58,1436.56,1437.45,1438.84,1439.88,1439.32,1439.43,1439.21,1440.31,1440.32,1440.69,1442.32,1444.06,1445.22,1444.76,1446.35,1446.87,1445.79,1443.69,1444.21,1445.51,1446.40,1446.42,1446.84,1446.90,1447.76,1449.18,1449.57,1449.46,1449.33,1449.28,1448.59,1448.82,1449.57,1451.61,1452.89,1453.97,1453.69,1452.96,1452.18,1452.98,1454.24,1456.09,1455.86,1454.64,1454.83,1455.89,1457.28,1456.12,1456.09,1455.51,1457.40,1457.87,1460.27,1460.86,1463.18,1462.19,1462.04,1461.00,1460.97,1460.10,1460.76,1461.99,1463.09,1462.69,1463.52,1464.99,1465.17,1465.77,1465.93,1467.37,1466.49,1467.10,1466.35,1466.52,1466.42,1467.40,1468.92,1466.49,1466.01,1464.47,1466.88,1467.68,1467.99,1468.74,1468.88,1471.47,1472.17,1472.25,1470.37,1470.97,1471.27,1471.90,1470.16,1471.75,1472.44,1473.53,1473.60,1471.78,1471.55,1469.69,1471.21,1472.38,1475.88,1474.66,1473.56,1472.66,1474.14,1472.51,1472.07,1472.24,1471.18,1471.27,0.00,0.00,0.00,0.00,0.00,0.00,0.00,0.00,0.00,0.00,0.00,0.00,0.00,0.00,0.00,0.00,0.00,0.00,0.00,0.00,0.00,0.00,0.00,0.00,0.00,0.00,0.00,0.00,0.00,0.00,0.00,0.00,0.00,0.00,0.00,0.00,0.00,0.00,0.00,0.00,0.00,0.00,0.00,0.00,0.00,0.00,0.00,0.00,0.00,0.00,0.00,0.00,0.00,0.00,0.00,0.00,0.00,0.00,0.00,0.00,0.00,0.00,0.00,0.00,0.00,0.00,0.00,0.00,0.00,0.00,0.00,0.00,0.00,0.00,0.00,0.00,0.00,0.00,0.00,0.00,0.00,0.00,0.00,0.00,0.00,0.00,0.00,0.00,0.00,0.00,0.00,0.00,0.00,0.00,0.00,0.00,0.00,0.00,0.00,0.00,0.00,0.00,0.00,0.00,0.00,0.00,0.00,0.00,0.00,0.00,0.00,0.00,0.00,0.00,0.00,0.00,0.00,0.00,0.00,0.00,0.00,0.00,0.00,0.00,0.00,0.00,0.00,0.00,0.00,0.00,0.00,0.00,0.00,0.00
0.00,0.00,0.00,0.00,0.00,0.00,0.00,0.00,0.00,0.00,0.00,0.00,0.00,0.00,0.00,0.00,0.00,0.00,0.00,0.00,0.00,0.00,0.00,0.00,0.00,0.00,0.00,0.00,1255.31,1266.63,1271.93,1268.83,1240.87,1204.15,1191.65,1191.95,1206.56,1231.00,1251.53,1272.09,1287.49,0.00,0.00,0.00,0.00,0.00,0.00,0.00,0.00,0.00,0.00,0.00,0.00,0.00,0.00,0.00,0.00,0.00,0.00,0.00,0.00,0.00,0.00,0.00,0.00,0.00,0.00,0.00,0.00,0.00,0.00,0.00,1378.01,1385.70,1389.07,1388.81,1390.20,1392.84,1393.41,1393.59,1391.86,1395.11,1396.09,1397.67,1397.29,1397.47,1398.64,1398.87,1398.64,1397.42,1396.98,1397.51,1398.67,1399.45,1402.01,1402.46,1402.37,1400.36,1400.58,1401.22,1402.74,1401.84,1401.93,1401.75,1403.61,1404.74,1404.89,1404.73,1404.90,1406.44,1408.90,1409.14,1406.59,1406.44,1407.03,1408.65,1408.14,1407.46,1407.55,1408.61,1409.10,1407.58,1406.23,1408.06,1409.83,1409.78,1408.78,1410.45,1411.53,1413.57,1412.53,1412.60,1411.69,1412.71,1411.93,1410.66,1410.40,1411.14,1413.29,1412.65,1412.76,1411.71,1413.83,1415.44,1416.57,1415.61,1414.55,1414.51,1413.51,1413.89,1415.32,1416.93,1417.46,1416.34,1416.85,1417.22,1418.18,1416.65,1416.70,1416.51,1417.10,1416.84,1417.52,1418.67,1419.94,1419.24,1419.86,1419.15,1419.71,1419.78,1420.03,1420.95,1421.83,1421.52,1420.87,1419.62,1419.71,1417.77,1416.99,1417.30,1419.88,1421.79,1422.88,1423.46,1423.43,1424.36,1423.88,1423.20,1423.53,1423.96,1425.58,1425.67,1426.80,1426.69,1426.56,1425.80,1425.61,1426.77,1425.96,1425.24,1423.60,1425.32,1427.14,1426.92,1428.48,1428.13,1431.17,1429.88,1430.07,1427.78,1428.76,1430.64,1432.03,1431.64,1430.32,1430.95,1431.10,1431.85,1431.48,1431.89,1431.99,1431.85,1432.18,1432.55,1434.14,1435.40,1434.46,1434.03,1435.10,1437.17,1437.88,1436.74,1435.33,1436.30,1437.82,1439.61,1438.75,1438.88,1438.42,1438.81,1438.90,1439.91,1440.50,1440.50,1440.96,1441.20,1441.03,1440.36,1439.23,1439.19,1440.65,1442.46,1443.62,1443.07,1443.93,1444.04,1445.97,1444.91,1444.87,1444.77,1447.08,1447.60,1448.75,1449.86,1451.06,1450.30,1449.19,1449.70,1448.88,1449.56,1449.06,1450.55,1450.52,1451.79,1452.09,1452.10,1452.33,1453.27,1453.77,1453.50,1453.08,1452.51,1453.36,1453.94,1455.33,1456.01,1456.24,1456.80,1457.41,1458.78,1458.87,1459.10,1458.13,1459.00,1459.29,1460.31,1459.02,1459.26,1458.39,1460.02,1460.41,1463.20,1464.42,1465.93,1465.16,1463.95,1463.20,1462.45,1462.44,1463.19,1464.75,1465.08,1465.08,1466.22,1468.29,1469.06,1470.10,1469.64,1470.47,1469.11,1470.93,1470.82,1471.53,1470.86,1471.34,1472.57,1471.74,1470.73,1468.69,1469.71,1470.95,1472.47,1473.26,1473.34,1474.76,1475.06,1475.53,1474.87,1475.57,1474.40,1473.58,1471.20,1473.67,1474.29,1475.32,1475.83,1475.33,1475.32,1472.92,1473.27,1474.84,1479.22,1479.30,1478.16,1474.95,1474.76,1472.94,1473.35,1475.10,1474.84,1474.86,0.00,0.00,0.00,0.00,0.00,0.00,0.00,0.00,0.00,0.00,0.00,0.00,0.00,0.00,0.00,0.00,0.00,0.00,0.00,0.00,0.00,0.00,0.00,0.00,0.00,0.00,0.00,0.00,0.00,0.00,0.00,0.00,0.00,0.00,0.00,0.00,0.00,0.00,0.00,0.00,0.00,0.00,0.00,0.00,0.00,0.00,0.00,0.00,0.00,0.00,0.00,0.00,0.00,0.00,0.00,0.00,0.00,0.00,0.00,0.00,0.00,0.00,0.00,0.00,0.00,0.00,0.00,0.00,0.00,0.00,0.00,0.00,0.00,0.00,0.00,0.00,0.00,0.00,0.00,0.00,0.00,0.00,0.00,0.00,0.00,0.00,0.00,0.00,0.00,0.00,0.00,0.00,0.00,0.00,0.00,0.00,0.00,0.00,0.00,0.00,0.00,0.00,0.00,0.00,0.00,0.00,0.00,0.00,0.00,0.00,0.00,0.00,0.00,0.00,0.00,0.00,0.00,0.00,0.00,0.00,0.00,0.00,0.00,0.00,0.00,0.00,0.00,0.00,0.00,0.00,0.00,0.00,0.00,0.00
0.00,0.00,0.00,0.00,0.00,0.00,0.00,0.00,0.00,0.00,0.00,0.00,0.00,0.00,0.00,0.00,0.00,0.00,0.00,0.00,0.00,0.00,0.00,0.00,0.00,0.00,0.00,0.00,1224.47,1262.29,1272.51,1274.47,1264.83,1229.05,1199.39,1193.35,1207.63,1232.05,1259.49,1276.91,1283.06,0.00,0.00,0.00,0.00,0.00,0.00,0.00,0.00,0.00,0.00,0.00,0.00,0.00,0.00,0.00,0.00,0.00,0.00,0.00,0.00,0.00,0.00,0.00,0.00,0.00,0.00,0.00,0.00,0.00,0.00,0.00,0.00,1381.39,1390.89,1392.65,1392.85,1390.04,1390.07,1392.30,1393.66,1396.60,1396.60,1396.63,1395.77,1395.51,1397.84,1399.18,1399.50,1397.71,1397.53,1399.68,1401.50,1402.17,1402.78,1401.00,1400.69,1399.27,1401.30,1402.24,1403.79,1402.72,1402.86,1403.17,1404.75,1405.14,1404.87,1404.91,1405.39,1407.45,1409.16,1408.78,1407.10,1406.66,1407.00,1407.26,1407.37,1407.47,1408.42,1408.53,1408.72,1406.98,1407.01,1409.50,1410.95,1409.27,1407.95,1408.82,1411.50,1412.72,1412.98,1413.09,1412.66,1413.62,1412.44,1411.05,1411.12,1412.84,1415.99,1416.18,1414.84,1412.70,1412.27,1413.75,1414.62,1415.01,1414.12,1415.36,1414.42,1415.37,1416.04,1417.73,1417.85,1415.80,1416.22,1417.23,1419.30,1417.61,1416.76,1417.89,1418.81,1418.89,1416.89,1418.16,1418.70,1418.91,1419.68,1419.39,1420.36,1419.98,1420.12,1420.64,1422.85,1422.86,1421.14,1419.77,1420.79,1421.49,1420.16,1419.52,1420.87,1421.70,1422.59,1422.71,1423.00,1424.34,1423.84,1423.32,1423.21,1423.57,1425.01,1425.27,1426.21,1426.16,1425.95,1425.98,1425.43,1426.30,1426.25,1427.00,1426.83,1427.19,1427.96,1427.19,1427.88,1428.00,1429.95,1429.74,1429.54,1427.44,1428.35,1429.40,1431.96,1432.22,1431.53,1431.54,1431.26,1431.99,1431.72,1432.19,1432.63,1432.58,1433.27,1434.31,1435.42,1435.64,1435.35,1435.74,1437.16,1438.08,1438.08,1436.10,1435.78,1436.76,1438.21,1438.52,1437.47,1438.02,1437.68,1439.64,1439.99,1440.30,1440.14,1440.88,1441.58,1442.40,1441.73,1441.62,1440.43,1441.13,1442.48,1443.48,1444.04,1445.07,1445.83,1446.74,1447.06,1446.31,1445.60,1445.52,1448.02,1449.14,1450.67,1450.38,1450.32,1449.67,1451.12,1451.20,1450.16,1449.96,1450.53,1451.98,1451.81,1452.22,1451.32,1451.59,1452.62,1454.30,1454.63,1454.69,1455.33,1455.96,1455.97,1455.40,1454.58,1456.18,1456.82,1457.58,1457.88,1459.10,1459.80,1460.22,1459.91,1460.36,1459.76,1460.48,1459.74,1460.02,1459.49,1462.24,1462.42,1464.00,1463.23,1465.86,1465.14,1465.13,1463.07,1463.16,1463.20,1464.41,1465.92,1466.50,1466.62,1467.65,1468.95,1470.19,1470.87,1469.90,1470.10,1469.76,1472.39,1472.91,1473.44,1472.00,1470.72,1471.02,1471.02,1471.59,1470.37,1470.34,1471.38,1471.64,1471.88,1472.23,1472.78,1474.56,1474.46,1475.22,1474.06,1473.56,1473.03,1472.83,1473.82,1474.75,1475.80,1476.95,1477.23,1476.78,1475.54,1476.28,1477.63,1479.67,1479.67,1478.54,1474.74,1472.29,1470.46,1472.46,1474.58,1474.58,1475.34,0.00,0.00,0.00,0.00,0.00,0.00,0.00,0.00,0.00,0.00,0.00,0.00,0.00,0.00,0.00,0.00,0.00,0.00,0.00,0.00,0.00,0.00,0.00,0.00,0.00,0.00,0.00,0.00,0.00,0.00,0.00,0.00,0.00,0.00,0.00,0.00,0.00,0.00,0.00,0.00,0.00,0.00,0.00,0.00,0.00,0.00,0.00,0.00,0.00,0.00,0.00,0.00,0.00,0.00,0.00,0.00,0.00,0.00,0.00,0.00,0.00,0.00,0.00,0.00,0.00,0.00,0.00,0.00,0.00,0.00,0.00,0.00,0.00,0.00,0.00,0.00,0.00,0.00,0.00,0.00,0.00,0.00,0.00,0.00,0.00,0.00,0.00,0.00,0.00,0.00,0.00,0.00,0.00,0.00,0.00,0.00,0.00,0.00,0.00,0.00,0.00,0.00,0.00,0.00,0.00,0.00,0.00,0.00,0.00,0.00,0.00,0.00,0.00,0.00,0.00,0.00,0.00,0.00,0.00,0.00,0.00,0.00,0.00,0.00,0.00,0.00,0.00,0.00,0.00,0.00,0.00,0.00,0.00,0.00
0.00,0.00,0.00,0.00,0.00,0.00,0.00,0.00,0.00,0.00,0.00,0.00,0.00,0.00,0.00,0.00,0.00,0.00,0.00,0.00,0.00,0.00,0.00,0.00,0.00,0.00,0.00,0.00,0.00,1220.49,1268.38,1276.17,1276.57,1250.90,1217.88,1202.27,1210.71,1238.30,1264.40,1281.21,1277.32,1265.66,1257.57,1261.54,1263.42,1267.42,1267.02,1271.23,0.00,0.00,0.00,0.00,0.00,0.00,0.00,0.00,0.00,0.00,0.00,0.00,0.00,0.00,0.00,0.00,0.00,0.00,0.00,0.00,0.00,0.00,0.00,0.00,0.00,1383.46,1396.89,1398.99,1397.79,1393.68,1392.71,1394.47,1395.56,1397.32,1397.02,1397.44,1397.98,1398.28,1400.09,1402.27,1402.01,1401.35,1401.04,1403.30,1405.57,1405.96,1407.70,1406.31,1406.28,1404.17,1404.80,1405.66,1406.98,1406.09,1405.91,1406.40,1407.44,1408.03,1407.15,1409.48,1410.14,1412.69,1412.18,1411.64,1409.52,1409.73,1409.83,1411.46,1411.44,1410.92,1410.26,1408.96,1410.54,1411.03,1412.92,1414.92,1414.86,1412.86,1411.37,1412.41,1415.60,1415.67,1415.88,1415.05,1414.74,1414.09,1413.67,1413.48,1414.72,1416.21,1419.28,1420.67,1419.34,1416.73,1415.75,1416.86,1417.03,1416.59,1415.86,1417.98,1419.09,1420.81,1420.73,1420.32,1419.65,1418.86,1418.89,1420.11,1421.52,1421.95,1421.34,1423.26,1423.31,1422.60,1419.69,1420.66,1422.15,1422.56,1422.80,1421.65,1422.13,1422.02,1422.38,1422.95,1425.30,1426.57,1424.68,1424.27,1423.93,1426.04,1425.51,1426.11,1425.49,1424.87,1424.77,1426.09,1425.61,1426.81,1427.14,1428.47,1428.24,1427.36,1427.91,1428.25,1428.57,1428.18,1428.60,1429.60,1429.87,1430.38,1430.18,1430.72,1431.31,1431.63,1432.14,1431.01,1430.87,1431.25,1433.02,1433.81,1433.95,1432.31,1432.56,1433.29,1435.78,1436.67,1435.90,1434.23,1433.03,1433.94,1434.39,1434.73,1434.42,1435.12,1436.57,1438.47,1438.82,1439.09,1438.15,1439.35,1440.26,1442.17,1441.69,1439.80,1437.80,1438.25,1439.92,1441.27,1441.40,1441.16,1441.06,1443.10,1443.73,1444.11,1443.17,1443.77,1444.52,1446.17,1446.36,1446.27,1445.70,1447.16,1448.63,1448.61,1448.07,1449.81,1450.74,1450.25,1448.87,1448.26,1449.05,1449.33,1451.77,1451.73,1452.64,1451.27,1451.63,1451.77,1454.51,1454.12,1452.70,1451.31,1453.24,1454.82,1455.51,1455.52,1454.84,1454.74,1455.33,1457.62,1458.63,1459.20,1459.08,1459.42,1459.06,1458.18,1457.21,1459.21,1460.52,1461.88,1462.18,1462.77,1463.23,1463.54,1463.83,1463.64,1462.79,1463.43,1464.29,1465.00,1464.28,1465.45,1465.77,1466.94,1466.15,1467.53,1468.33,1467.98,1467.83,1467.40,1469.22,1468.79,1469.96,1469.49,1469.97,1471.19,1472.72,1473.75,1474.10,1472.76,1473.22,1472.25,1474.66,1475.56,1476.79,1475.28,1473.77,1473.88,1475.12,1475.63,1475.61,1476.05,1476.31,1475.11,1475.32,1475.20,1476.10,1476.02,1476.43,1476.64,1477.27,1477.39,1477.50,1477.35,1478.95,1481.00,1481.46,1481.93,1481.75,1481.62,1479.96,1478.77,1479.67,1480.86,1480.83,1480.07,1475.54,1473.13,1471.49,1475.90,1478.60,1478.73,1477.22,1477.32,1481.01,1480.29,0.00,0.00,0.00,0.00,0.00,0.00,0.00,0.00,0.00,0.00,0.00,0.00,0.00,0.00,0.00,0.00,0.00,0.00,0.00,0.00,0.00,0.00,0.00,0.00,0.00,0.00,0.00,0.00,0.00,0.00,0.00,0.00,0.00,0.00,0.00,0.00,0.00,0.00,0.00,0.00,0.00,0.00,0.00,0.00,0.00,0.00,0.00,0.00,0.00,0.00,0.00,0.00,0.00,0.00,0.00,0.00,0.00,0.00,0.00,0.00,0.00,0.00,0.00,0.00,0.00,0.00,0.00,0.00,0.00,0.00,0.00,0.00,0.00,0.00,0.00,0.00,0.00,0.00,0.00,0.00,0.00,0.00,0.00,0.00,0.00,0.00,0.00,0.00,0.00,0.00,0.00,0.00,0.00,0.00,0.00,0.00,0.00,0.00,0.00,0.00,0.00,0.00,0.00,0.00,0.00,0.00,0.00,0.00,0.00,0.00,0.00,0.00,0.00,0.00,0.00,0.00,0.00,0.00,0.00,0.00,0.00,0.00,0.00,0.00,0.00,0.00,0.00,0.00,0.00,0.00,0.00
0.00,0.00,0.00,0.00,0.00,0.00,0.00,0.00,0.00,0.00,0.00,0.00,0.00,0.00,0.00,0.00,0.00,0.00,0.00,0.00,0.00,0.00,0.00,0.00,0.00,0.00,0.00,0.00,0.00,0.00,1260.87,1275.88,1283.18,1274.61,1246.75,1217.73,1221.40,1238.64,1265.63,1280.54,1274.80,1260.96,1253.33,1259.43,1260.30,1263.21,1263.65,1265.13,1268.21,1280.59,0.00,0.00,0.00,0.00,0.00,0.00,0.00,0.00,0.00,0.00,0.00,0.00,0.00,0.00,0.00,0.00,0.00,0.00,0.00,0.00,0.00,0.00,0.00,0.00,1399.80,1400.14,1398.52,1395.47,1393.28,1394.00,1394.59,1397.58,1398.02,1398.80,1399.07,1400.18,1400.89,1402.21,1400.27,1399.84,1399.90,1402.23,1405.51,1406.31,1408.70,1406.78,1406.86,1404.55,1405.86,1405.81,1406.80,1406.20,1407.44,1407.69,1408.13,1408.28,1408.71,1411.21,1411.74,1413.19,1412.68,1411.96,1410.45,1408.67,1409.50,1410.29,1412.17,1411.84,1411.89,1411.44,1413.37,1413.22,1414.15,1415.35,1416.67,1414.49,1413.34,1413.79,1417.45,1416.81,1416.29,1415.10,1415.38,1415.09,1414.50,1415.60,1416.61,1419.51,1419.92,1421.38,1419.21,1418.07,1416.54,1415.86,1415.83,1416.50,1418.10,1419.92,1421.30,1422.17,1422.33,1421.07,1420.26,1419.87,1419.47,1420.26,1420.84,1422.85,1422.41,1423.77,1422.99,1422.82,1421.46,1422.19,1423.14,1422.60,1422.74,1422.37,1424.01,1423.79,1423.30,1423.58,1425.28,1426.82,1424.65,1425.51,1425.13,1427.48,1426.59,1427.87,1427.07,1427.00,1425.72,1427.01,1427.12,1428.76,1428.73,1429.39,1429.10,1429.05,1428.65,1428.72,1428.50,1429.01,1429.49,1430.62,1430.03,1430.33,1430.42,1432.05,1433.65,1433.65,1433.19,1432.43,1431.44,1432.17,1432.56,1434.21,1433.85,1432.24,1431.98,1433.10,1435.49,1437.12,1436.06,1434.91,1434.57,1435.35,1436.00,1435.71,1436.10,1436.29,1437.24,1439.06,1439.10,1439.29,1439.44,1440.77,1440.68,1441.53,1441.62,1440.69,1439.69,1439.49,1441.01,1442.27,1443.31,1442.67,1442.33,1443.48,1445.17,1444.64,1444.44,1445.36,1446.62,1447.22,1447.51,1448.09,1448.37,1449.17,1448.98,1448.51,1448.55,1451.25,1451.27,1450.23,1449.07,1449.23,1449.58,1449.95,1452.14,1451.87,1451.62,1450.58,1450.74,1451.60,1453.33,1453.25,1453.20,1452.68,1454.71,1454.04,1454.20,1454.32,1455.32,1455.97,1456.00,1457.68,1458.47,1459.23,1459.28,1460.78,1461.11,1461.60,1460.02,1461.39,1461.25,1462.03,1461.63,1461.82,1462.50,1463.92,1464.54,1465.05,1463.33,1464.32,1464.69,1466.23,1465.97,1466.79,1465.88,1465.97,1466.16,1467.88,1468.45,1467.45,1468.34,1469.04,1471.94,1471.88,1472.86,1472.18,1472.08,1472.80,1473.26,1474.16,1474.24,1475.65,1476.34,1475.62,1474.41,1475.27,1476.90,1477.72,1475.61,1475.18,1474.98,1476.78,1477.45,1478.24,1477.18,1475.27,1476.37,1477.20,1478.80,1478.16,1477.32,1477.12,1477.79,1480.81,1481.71,1481.80,1480.10,1480.42,1480.76,1481.85,1481.95,1481.61,1479.23,1480.04,1479.92,1483.35,1481.60,1483.20,1478.25,1476.39,1473.29,1478.38,1480.29,1480.90,0.00,0.00,0.00,0.00,0.00,0.00,0.00,0.00,0.00,0.00,0.00,0.00,0.00,0.00,0.00,0.00,0.00,0.00,0.00,0.00,0.00,0.00,0.00,0.00,0.00,0.00,0.00,0.00,0.00,0.00,0.00,0.00,0.00,0.00,0.00,0.00,0.00,0.00,0.00,0.00,0.00,0.00,0.00,0.00,0.00,0.00,0.00,0.00,0.00,0.00,0.00,0.00,0.00,0.00,0.00,0.00,0.00,0.00,0.00,0.00,0.00,0.00,0.00,0.00,0.00,0.00,0.00,0.00,0.00,0.00,0.00,0.00,0.00,0.00,0.00,0.00,0.00,0.00,0.00,0.00,0.00,0.00,0.00,0.00,0.00,0.00,0.00,0.00,0.00,0.00,0.00,0.00,0.00,0.00,0.00,0.00,0.00,0.00,0.00,0.00,0.00,0.00,0.00,0.00,0.00,0.00,0.00,0.00,0.00,0.00,0.00,0.00,0.00,0.00,0.00,0.00,0.00,0.00,0.00,0.00,0.00,0.00,0.00,0.00,0.00,0.00,0.00,0.00,0.00,0.00,0.00,0.00,0.00,0.00,0.00
0.00,0.00,0.00,0.00,0.00,0.00,0.00,0.00,0.00,0.00,0.00,0.00,0.00,0.00,0.00,0.00,0.00,0.00,0.00,0.00,0.00,0.00,0.00,0.00,0.00,0.00,0.00,0.00,0.00,0.00,0.00,1273.39,1286.99,1284.17,1270.89,1247.16,1239.06,1245.07,1264.13,1279.29,1274.29,1260.93,1254.95,1260.51,1263.38,1266.87,1266.38,1266.92,1268.53,1276.22,1283.87,1289.40,0.00,0.00,0.00,0.00,0.00,0.00,0.00,0.00,0.00,0.00,0.00,0.00,0.00,0.00,0.00,0.00,0.00,0.00,0.00,0.00,0.00,1394.37,1400.69,1399.59,1398.24,1399.27,1400.66,1401.36,1399.08,1401.68,1402.76,1404.59,1404.02,1402.69,1402.12,1403.37,1403.30,1403.21,1403.34,1404.55,1407.95,1409.07,1411.22,1410.01,1410.22,1408.32,1409.36,1408.69,1408.40,1408.43,1410.55,1412.12,1413.00,1412.91,1415.00,1416.59,1416.80,1417.06,1416.83,1416.96,1415.22,1413.28,1412.61,1413.44,1415.04,1415.95,1415.71,1416.03,1416.54,1416.08,1415.42,1416.71,1419.28,1419.21,1419.03,1419.13,1420.19,1419.19,1418.57,1418.76,1419.53,1418.46,1418.59,1419.35,1420.75,1421.77,1422.12,1422.86,1422.83,1422.15,1422.16,1420.37,1421.11,1421.42,1424.05,1423.95,1424.83,1424.86,1425.16,1423.51,1423.05,1424.08,1424.26,1423.55,1422.42,1424.68,1425.95,1427.39,1425.61,1424.71,1423.22,1424.09,1425.32,1426.44,1426.18,1426.09,1427.48,1428.60,1428.99,1428.75,1429.37,1429.65,1428.78,1429.68,1428.87,1430.25,1429.18,1431.56,1431.11,1431.35,1429.23,1430.30,1430.88,1432.37,1431.58,1432.28,1432.61,1433.63,1432.03,1430.52,1431.01,1433.01,1435.29,1435.55,1434.85,1434.00,1433.45,1434.02,1435.82,1436.78,1437.33,1436.69,1435.65,1436.52,1437.18,1438.73,1437.74,1436.05,1435.69,1438.02,1440.07,1441.20,1439.80,1439.14,1438.61,1438.65,1439.28,1438.95,1438.77,1438.72,1439.08,1441.15,1441.46,1443.31,1442.90,1443.03,1442.36,1444.63,1445.76,1445.01,1443.21,1442.71,1444.91,1446.86,1447.64,1445.94,1445.17,1446.32,1447.91,1447.46,1447.79,1448.54,1450.38,1449.66,1450.14,1449.77,1451.07,1452.11,1452.33,1451.62,1450.46,1452.16,1452.61,1452.51,1452.32,1452.58,1453.31,1454.12,1455.78,1455.29,1454.40,1453.49,1453.77,1454.13,1454.56,1454.90,1455.41,1456.33,1457.68,1457.86,1458.14,1458.60,1459.51,1459.02,1458.79,1459.61,1462.35,1463.43,1462.90,1462.49,1463.81,1465.26,1464.46,1464.02,1464.54,1466.27,1466.39,1465.36,1464.83,1466.05,1467.23,1468.14,1467.21,1468.41,1469.37,1470.95,1471.06,1470.27,1468.88,1468.40,1470.00,1470.70,1471.60,1470.09,1472.15,1471.97,1475.57,1475.61,1476.30,1474.06,1474.00,1475.38,1476.51,1476.84,1477.09,1478.69,1479.81,1478.46,1476.83,1476.19,1479.26,1480.88,1480.78,1478.37,1477.88,1478.46,1479.74,1481.49,1482.21,1481.06,1482.36,1482.31,1485.07,1482.62,1481.22,1479.38,1481.04,1484.18,1486.95,1487.58,1486.89,1484.90,1483.80,1483.98,1485.50,1484.60,1483.13,1481.85,1481.55,1483.06,1482.34,1484.82,1482.84,1482.26,1481.45,1483.44,1486.47,1486.80,1482.95,1481.03,1480.76,1482.71,1480.53,1480.69,1480.84,0.00,0.00,0.00,0.00,0.00,0.00,0.00,0.00,0.00,0.00,0.00,0.00,0.00,0.00,0.00,0.00,0.00,0.00,0.00,0.00,0.00,0.00,0.00,0.00,0.00,0.00,0.00,0.00,0.00,0.00,0.00,0.00,0.00,0.00,0.00,0.00,0.00,0.00,0.00,0.00,0.00,0.00,0.00,0.00,0.00,0.00,0.00,0.00,0.00,0.00,0.00,0.00,0.00,0.00,0.00,0.00,0.00,0.00,0.00,0.00,0.00,0.00,0.00,0.00,0.00,0.00,0.00,0.00,0.00,0.00,0.00,0.00,0.00,0.00,0.00,0.00,0.00,0.00,0.00,0.00,0.00,0.00,0.00,0.00,0.00,0.00,0.00,0.00,0.00,0.00,0.00,0.00,0.00,0.00,0.00,0.00,0.00,0.00,0.00,0.00,0.00,0.00,0.00,0.00,0.00,0.00,0.00,0.00,0.00,0.00,0.00,0.00,0.00,0.00,0.00,0.00,0.00,0.00,0.00,0.00,0.00,0.00,0.00,0.00,0.00,0.00,0.00,0.00
0.00,0.00,0.00,0.00,0.00,0.00,0.00,0.00,0.00,0.00,0.00,0.00,0.00,0.00,0.00,0.00,0.00,0.00,0.00,0.00,0.00,0.00,0.00,0.00,0.00,0.00,0.00,0.00,0.00,0.00,0.00,1254.82,1281.75,1284.72,1279.66,1266.64,1256.69,1256.88,1267.94,1277.52,1271.86,1260.07,1253.95,1255.62,1259.60,1263.41,1267.58,1267.51,1267.84,1272.65,1277.53,1284.74,1289.37,0.00,0.00,0.00,0.00,0.00,0.00,0.00,0.00,0.00,0.00,0.00,0.00,0.00,0.00,0.00,0.00,0.00,0.00,0.00,0.00,1395.02,1398.34,1397.68,1397.15,1399.16,1400.94,1402.46,1401.18,1403.91,1405.37,1406.02,1403.73,1401.61,1401.91,1403.61,1404.49,1404.09,1404.54,1406.25,1409.41,1409.94,1410.06,1409.53,1409.54,1408.94,1410.35,1410.28,1410.62,1409.83,1411.17,1412.24,1414.02,1414.42,1415.25,1415.52,1416.30,1417.42,1417.59,1417.64,1416.39,1415.15,1415.66,1415.80,1416.09,1416.16,1417.04,1418.40,1418.01,1416.60,1414.53,1415.34,1417.40,1419.52,1420.89,1420.95,1420.00,1418.55,1418.19,1419.38,1419.91,1419.73,1418.59,1419.14,1420.57,1421.93,1421.31,1419.91,1420.71,1421.90,1422.37,1420.31,1420.69,1421.82,1424.71,1423.65,1423.16,1423.26,1423.37,1423.45,1422.99,1424.11,1424.39,1423.72,1423.14,1424.75,1425.81,1427.16,1425.07,1424.84,1424.32,1424.94,1424.91,1425.83,1426.26,1426.89,1427.71,1428.85,1429.47,1429.51,1429.93,1430.10,1429.98,1430.38,1429.81,1430.40,1429.54,1431.13,1432.37,1433.74,1432.54,1431.81,1432.63,1433.38,1432.05,1431.56,1432.16,1434.34,1432.91,1431.65,1431.80,1433.63,1435.24,1435.37,1434.43,1433.62,1432.83,1433.42,1435.39,1436.91,1438.10,1438.37,1437.95,1438.28,1437.37,1437.67,1436.93,1435.92,1436.60,1438.55,1439.97,1440.56,1440.00,1440.75,1439.80,1439.73,1440.14,1440.53,1440.39,1440.80,1441.22,1442.45,1442.41,1444.63,1444.36,1444.16,1442.97,1444.63,1445.48,1445.45,1444.97,1444.80,1445.90,1447.40,1447.97,1446.47,1445.65,1446.17,1448.41,1447.63,1448.49,1448.78,1450.60,1450.63,1450.44,1450.17,1450.34,1451.58,1451.64,1452.41,1451.45,1452.82,1452.35,1454.05,1454.53,1455.62,1454.68,1454.54,1455.65,1456.05,1456.11,1454.41,1453.91,1453.74,1454.33,1455.18,1455.55,1457.05,1458.34,1459.69,1459.92,1461.04,1461.13,1460.61,1459.29,1459.74,1461.50,1462.34,1463.04,1463.55,1465.66,1466.25,1465.47,1465.19,1465.81,1466.91,1466.49,1465.49,1464.74,1465.59,1466.90,1468.79,1468.62,1469.11,1468.61,1469.80,1470.83,1471.22,1469.83,1468.10,1469.24,1470.69,1471.98,1472.39,1472.19,1472.48,1473.02,1475.81,1476.43,1475.48,1474.38,1475.87,1476.63,1477.36,1477.57,1479.51,1479.38,1478.47,1476.73,1476.81,1479.55,1481.23,1480.48,1478.06,1478.04,1479.29,1479.31,1481.27,1481.19,1481.88,1481.96,1484.39,1486.27,1484.57,1481.93,1481.07,1481.04,1483.92,1486.31,1488.35,1487.37,1484.90,1483.97,1484.52,1486.18,1485.83,1485.14,1484.57,1482.33,1482.41,1482.96,1487.91,1488.53,1486.54,1484.55,1483.77,1486.75,1489.60,1487.79,1486.17,1482.92,1484.26,0.00,0.00,0.00,0.00,0.00,0.00,0.00,0.00,0.00,0.00,0.00,0.00,0.00,0.00,0.00,0.00,0.00,0.00,0.00,0.00,0.00,0.00,0.00,0.00,0.00,0.00,0.00,0.00,0.00,0.00,0.00,0.00,0.00,0.00,0.00,0.00,0.00,0.00,0.00,0.00,0.00,0.00,0.00,0.00,0.00,0.00,0.00,0.00,0.00,0.00,0.00,0.00,0.00,0.00,0.00,0.00,0.00,0.00,0.00,0.00,0.00,0.00,0.00,0.00,0.00,0.00,0.00,0.00,0.00,0.00,0.00,0.00,0.00,0.00,0.00,0.00,0.00,0.00,0.00,0.00,0.00,0.00,0.00,0.00,0.00,0.00,0.00,0.00,0.00,0.00,0.00,0.00,0.00,0.00,0.00,0.00,0.00,0.00,0.00,0.00,0.00,0.00,0.00,0.00,0.00,0.00,0.00,0.00,0.00,0.00,0.00,0.00,0.00,0.00,0.00,0.00,0.00,0.00,0.00,0.00,0.00,0.00,0.00,0.00,0.00,0.00,0.00,0.00,0.00,0.00,0.00
0.00,0.00,0.00,0.00,0.00,0.00,0.00,0.00,0.00,0.00,0.00,0.00,0.00,0.00,0.00,0.00,0.00,0.00,0.00,0.00,0.00,0.00,0.00,0.00,0.00,0.00,0.00,0.00,0.00,0.00,0.00,0.00,1271.49,1278.33,1284.05,1280.56,1274.39,1270.93,1276.71,1278.93,1267.23,1255.49,1252.98,1253.72,1258.54,1261.68,1267.06,1267.76,1268.24,1274.43,1280.74,1287.67,1292.93,0.00,0.00,0.00,0.00,0.00,0.00,0.00,0.00,0.00,0.00,0.00,0.00,0.00,0.00,0.00,0.00,0.00,0.00,0.00,0.00,1397.48,1400.01,1402.83,1400.97,1403.36,1404.62,1407.71,1405.82,1406.55,1406.36,1407.62,1406.07,1406.02,1407.56,1408.73,1408.93,1408.22,1409.25,1411.15,1413.01,1413.40,1412.64,1413.05,1413.08,1412.17,1412.65,1413.02,1414.60,1415.14,1415.53,1414.95,1415.63,1416.98,1417.51,1418.77,1419.36,1421.55,1421.47,1420.92,1419.06,1418.06,1418.42,1419.56,1418.47,1418.10,1418.86,1419.98,1421.00,1420.22,1419.20,1418.83,1419.35,1421.96,1423.41,1423.85,1421.37,1420.59,1420.06,1421.69,1421.86,1421.86,1422.76,1423.43,1425.19,1424.37,1423.97,1422.83,1424.44,1425.48,1426.59,1424.91,1425.09,1425.24,1426.67,1426.76,1425.75,1426.71,1425.67,1427.11,1426.57,1427.41,1427.38,1427.90,1427.38,1427.17,1427.00,1428.31,1427.70,1427.99,1427.81,1427.92,1428.15,1429.53,1430.62,1431.11,1431.08,1431.84,1432.10,1432.69,1433.07,1433.14,1433.34,1433.83,1433.79,1434.23,1433.34,1434.12,1435.04,1436.40,1435.98,1434.44,1434.44,1434.88,1434.01,1434.33,1434.62,1436.44,1435.17,1434.78,1435.34,1437.22,1438.70,1439.75,1439.21,1438.16,1437.82,1437.63,1439.29,1439.40,1440.92,1441.30,1442.24,1441.58,1440.76,1439.35,1440.25,1440.69,1442.81,1443.41,1443.49,1443.28,1443.92,1444.52,1443.83,1443.15,1444.82,1444.59,1444.54,1444.24,1445.95,1446.49,1446.27,1447.78,1447.52,1446.80,1446.51,1448.36,1448.98,1448.25,1448.77,1448.52,1449.51,1449.62,1451.00,1449.99,1450.01,1450.48,1451.83,1451.84,1452.32,1452.73,1453.64,1453.76,1453.78,1453.37,1453.24,1453.68,1454.74,1456.17,1455.68,1455.04,1454.88,1457.05,1458.37,1458.69,1457.80,1457.69,1458.54,1459.17,1459.92,1459.05,1458.28,1457.39,1457.98,1458.87,1458.66,1459.03,1460.30,1462.60,1463.84,1464.93,1464.48,1463.47,1463.06,1463.97,1465.89,1466.46,1466.79,1467.34,1469.74,1470.23,1468.87,1468.13,1469.65,1470.65,1470.21,1469.18,1469.05,1469.39,1470.54,1471.79,1472.96,1473.06,1473.58,1473.71,1475.23,1475.71,1474.89,1473.66,1474.25,1475.73,1477.40,1478.97,1478.10,1477.03,1476.56,1479.15,1480.65,1479.36,1478.77,1479.61,1481.03,1480.78,1480.86,1480.97,1481.45,1481.39,1481.57,1481.31,1482.86,1483.77,1484.37,1482.52,1482.06,1481.79,1483.56,1486.56,1487.21,1487.09,1486.30,1488.33,1488.72,1487.65,1486.76,1486.57,1486.82,1486.10,1488.10,1488.60,1489.93,1488.78,1490.03,1490.00,1490.28,1488.84,1489.26,1488.03,1487.50,1484.58,1485.73,1488.60,1491.45,1490.56,1491.06,1490.67,1493.79,1493.29,1492.43,1488.59,1486.26,1487.51,1487.07,1487.78,1484.06,1480.49,1480.96,0.00,0.00,0.00,0.00,0.00,0.00,0.00,0.00,0.00,0.00,0.00,0.00,0.00,0.00,0.00,0.00,0.00,0.00,0.00,0.00,0.00,0.00,0.00,0.00,0.00,0.00,0.00,0.00,0.00,0.00,0.00,0.00,0.00,0.00,0.00,0.00,0.00,0.00,0.00,0.00,0.00,0.00,0.00,0.00,0.00,0.00,0.00,0.00,0.00,0.00,0.00,0.00,0.00,0.00,0.00,0.00,0.00,0.00,0.00,0.00,0.00,0.00,0.00,0.00,0.00,0.00,0.00,0.00,0.00,0.00,0.00,0.00,0.00,0.00,0.00,0.00,0.00,0.00,0.00,0.00,0.00,0.00,0.00,0.00,0.00,0.00,0.00,0.00,0.00,0.00,0.00,0.00,0.00,0.00,0.00,0.00,0.00,0.00,0.00,0.00,0.00,0.00,0.00,0.00,0.00,0.00,0.00,0.00,0.00,0.00,0.00,0.00,0.00,0.00,0.00,0.00,0.00,0.00,0.00,0.00,0.00,0.00,0.00,0.00,0.00,0.00
0.00,0.00,0.00,0.00,0.00,0.00,0.00,0.00,0.00,0.00,0.00,0.00,0.00,0.00,0.00,0.00,0.00,0.00,0.00,0.00,0.00,0.00,0.00,0.00,0.00,0.00,0.00,0.00,0.00,0.00,0.00,0.00,0.00,1275.64,1280.57,1284.79,1280.14,1281.30,1281.41,1277.39,1267.24,1253.26,1250.25,1249.01,1253.98,1257.11,1264.55,1268.47,1272.78,1281.69,1288.76,1291.67,1290.73,1296.22,0.00,0.00,0.00,0.00,0.00,0.00,0.00,0.00,0.00,0.00,0.00,0.00,0.00,0.00,0.00,0.00,0.00,0.00,0.00,1389.16,1400.53,1405.24,1404.15,1406.08,1405.35,1409.24,1408.20,1408.33,1406.00,1407.10,1407.69,1410.09,1411.57,1411.04,1410.08,1409.28,1409.41,1410.49,1412.31,1413.64,1412.52,1412.87,1412.81,1413.21,1412.34,1413.38,1416.80,1418.71,1418.48,1414.81,1414.87,1416.34,1417.01,1418.29,1418.83,1421.33,1421.49,1421.83,1420.05,1419.61,1420.06,1421.47,1419.26,1418.02,1418.62,1420.48,1422.64,1422.44,1421.78,1420.72,1420.86,1422.70,1423.55,1423.05,1420.97,1420.61,1420.79,1422.14,1422.34,1422.05,1422.37,1423.11,1424.83,1424.06,1423.78,1423.30,1424.91,1425.80,1426.30,1425.21,1425.02,1425.90,1427.10,1427.51,1426.06,1426.40,1425.41,1427.30,1427.40,1427.57,1427.63,1428.54,1428.48,1427.75,1426.90,1428.31,1428.50,1429.20,1429.70,1430.53,1431.41,1431.63,1432.33,1432.27,1432.03,1431.80,1431.78,1432.74,1432.35,1432.85,1433.51,1434.42,1434.54,1434.02,1433.60,1433.92,1434.85,1436.65,1436.26,1435.34,1434.98,1435.10,1435.19,1435.99,1436.16,1437.24,1435.45,1436.48,1436.31,1437.58,1437.95,1438.82,1439.01,1439.46,1439.32,1438.94,1439.13,1439.41,1440.56,1441.02,1442.03,1441.17,1440.31,1438.92,1441.05,1441.94,1443.99,1443.70,1444.04,1443.96,1444.31,1443.98,1443.62,1443.91,1446.07,1445.89,1445.76,1445.42,1446.65,1446.57,1445.57,1447.02,1447.16,1447.35,1447.48,1448.39,1449.00,1449.07,1450.11,1449.60,1449.32,1449.68,1451.51,1450.82,1451.25,1451.28,1452.80,1452.93,1453.45,1453.71,1453.05,1453.70,1454.41,1456.74,1455.70,1455.02,1454.12,1456.67,1456.73,1456.09,1455.15,1457.35,1459.39,1459.85,1457.79,1456.94,1457.29,1458.52,1459.50,1460.11,1459.96,1459.70,1459.35,1459.73,1458.95,1458.68,1459.47,1461.44,1463.02,1464.82,1464.26,1464.93,1465.23,1467.41,1467.20,1467.12,1466.81,1468.56,1469.98,1470.40,1468.74,1469.17,1470.42,1470.71,1469.88,1469.37,1470.02,1470.35,1470.45,1471.66,1472.67,1473.98,1472.97,1473.31,1475.12,1477.64,1476.77,1474.97,1474.38,1476.86,1478.10,1479.93,1478.54,1478.82,1478.18,1480.03,1480.40,1479.72,1479.54,1481.39,1483.36,1483.73,1482.95,1482.15,1482.11,1482.33,1482.99,1483.62,1484.69,1485.60,1484.86,1484.28,1484.13,1485.25,1485.98,1487.20,1486.52,1487.01,1486.59,1489.20,1488.57,1487.95,1487.11,1487.51,1487.78,1487.94,1487.57,1486.77,1486.78,1488.55,1490.81,1490.76,1490.23,1490.86,1490.90,1490.37,1488.63,1485.91,1486.14,1488.92,1491.71,1490.10,1489.37,1492.57,1495.55,1494.20,1489.53,1485.90,1485.27,1487.37,1488.32,1490.35,0.00,0.00,0.00,0.00,0.00,0.00,0.00,0.00,0.00,0.00,0.00,0.00,0.00,0.00,0.00,0.00,0.00,0.00,0.00,0.00,0.00,0.00,0.00,0.00,0.00,0.00,0.00,0.00,0.00,0.00,0.00,0.00,0.00,0.00,0.00,0.00,0.00,0.00,0.00,0.00,0.00,0.00,0.00,0.00,0.00,0.00,0.00,0.00,0.00,0.00,0.00,0.00,0.00,0.00,0.00,0.00,0.00,0.00,0.00,0.00,0.00,0.00,0.00,0.00,0.00,0.00,0.00,0.00,0.00,0.00,0.00,0.00,0.00,0.00,0.00,0.00,0.00,0.00,0.00,0.00,0.00,0.00,0.00,0.00,0.00,0.00,0.00,0.00,0.00,0.00,0.00,0.00,0.00,0.00,0.00,0.00,0.00,0.00,0.00,0.00,0.00,0.00,0.00,0.00,0.00,0.00,0.00,0.00,0.00,0.00,0.00,0.00,0.00,0.00,0.00,0.00,0.00,0.00,0.00,0.00,0.00,0.00,0.00,0.00,0.00,0.00,0.00,0.00,0.00
0.00,0.00,0.00,0.00,0.00,0.00,0.00,0.00,0.00,0.00,0.00,0.00,0.00,0.00,0.00,0.00,0.00,0.00,0.00,0.00,0.00,0.00,0.00,0.00,0.00,0.00,0.00,0.00,0.00,0.00,0.00,0.00,0.00,0.00,1279.44,1282.12,1287.93,1291.63,1288.37,1280.29,1268.56,1256.99,1252.48,1251.78,1256.13,1258.35,1262.73,1268.94,1282.86,1328.03,1330.56,1305.14,1294.49,1297.86,1306.30,0.00,0.00,1290.90,1287.53,1292.35,1297.75,1299.99,1290.10,1289.73,1294.04,1309.70,0.00,0.00,0.00,0.00,0.00,0.00,0.00,1398.01,1404.30,1408.83,1407.94,1409.85,1409.96,1412.52,1412.48,1412.07,1411.12,1411.48,1412.59,1415.02,1415.95,1415.06,1413.45,1412.29,1411.80,1413.20,1414.90,1416.35,1416.98,1417.39,1418.37,1417.71,1416.23,1415.83,1417.96,1419.96,1421.01,1419.10,1418.12,1418.80,1419.97,1421.44,1421.97,1423.21,1425.14,1425.30,1424.14,1422.42,1421.69,1423.17,1422.30,1423.05,1422.98,1425.25,1426.01,1425.84,1425.06,1424.72,1425.05,1425.21,1425.07,1423.76,1423.29,1424.28,1424.47,1424.44,1424.53,1425.86,1427.09,1428.39,1429.60,1429.83,1429.48,1429.46,1429.50,1429.59,1430.26,1430.72,1430.40,1430.38,1430.52,1430.69,1430.27,1429.80,1429.94,1430.85,1431.35,1431.07,1430.98,1431.84,1431.76,1430.52,1430.46,1431.73,1432.84,1432.59,1433.06,1434.55,1436.73,1436.51,1436.09,1435.47,1436.02,1436.09,1436.79,1437.18,1436.55,1435.96,1437.05,1437.67,1437.48,1436.74,1436.32,1436.54,1436.47,1438.27,1438.31,1438.45,1437.78,1437.84,1438.01,1439.33,1439.63,1440.81,1438.69,1439.19,1438.83,1441.12,1442.18,1442.67,1443.06,1443.11,1443.18,1441.91,1441.98,1441.63,1443.23,1443.39,1445.18,1444.21,1444.39,1443.41,1445.69,1446.60,1447.65,1447.03,1447.54,1447.51,1447.75,1447.08,1447.40,1447.66,1449.05,1448.43,1449.25,1448.95,1449.75,1448.68,1448.40,1450.09,1450.61,1451.02,1450.74,1452.25,1452.38,1452.22,1452.73,1452.50,1453.36,1453.89,1455.96,1454.97,1455.39,1454.94,1455.83,1455.37,1456.35,1457.64,1457.04,1456.76,1457.46,1459.57,1459.63,1458.49,1458.04,1459.75,1460.32,1458.48,1458.71,1459.70,1462.07,1461.78,1461.40,1460.69,1460.13,1461.12,1462.96,1465.43,1465.91,1466.18,1464.54,1464.47,1463.63,1463.84,1464.15,1465.64,1467.22,1467.87,1467.36,1468.26,1470.51,1472.04,1471.65,1471.35,1470.60,1471.48,1472.14,1473.07,1472.54,1472.27,1472.97,1473.12,1473.77,1473.76,1474.64,1474.56,1474.47,1474.78,1475.27,1477.41,1477.34,1477.31,1478.21,1480.25,1481.18,1480.33,1479.19,1480.40,1481.57,1482.68,1482.38,1482.25,1483.68,1483.83,1484.40,1483.63,1484.21,1485.84,1488.00,1488.07,1487.20,1485.31,1487.36,1487.65,1489.31,1487.71,1489.32,1489.10,1488.86,1486.01,1486.72,1487.67,1490.59,1490.69,1491.97,1492.11,1492.66,1494.14,1493.47,1492.08,1490.27,1490.21,1492.04,1491.88,1491.75,1489.97,1490.42,1491.08,1492.47,1492.12,1493.26,1494.13,1494.94,1495.22,1495.63,1492.63,1492.09,1493.19,1495.73,1494.60,1493.46,1497.20,1498.82,1497.05,1490.46,1487.97,1487.04,1490.24,1491.59,1493.65,1490.94,1487.72,0.00,0.00,0.00,0.00,0.00,0.00,0.00,0.00,0.00,0.00,0.00,0.00,0.00,0.00,0.00,0.00,0.00,0.00,0.00,0.00,0.00,0.00,0.00,0.00,0.00,0.00,0.00,0.00,0.00,0.00,0.00,0.00,0.00,0.00,0.00,0.00,0.00,0.00,0.00,0.00,0.00,0.00,0.00,0.00,0.00,0.00,0.00,0.00,0.00,0.00,0.00,0.00,0.00,0.00,0.00,0.00,0.00,0.00,0.00,0.00,0.00,0.00,0.00,0.00,0.00,0.00,0.00,0.00,0.00,0.00,0.00,0.00,0.00,0.00,0.00,0.00,0.00,0.00,0.00,0.00,0.00,0.00,0.00,0.00,0.00,0.00,0.00,0.00,0.00,0.00,0.00,0.00,0.00,0.00,0.00,0.00,0.00,0.00,0.00,0.00,0.00,0.00,0.00,0.00,0.00,0.00,0.00,0.00,0.00,0.00,0.00,0.00,0.00,0.00,0.00,0.00,0.00,0.00,0.00,0.00,0.00,0.00,0.00,0.00,0.00,0.00,0.00
0.00,0.00,0.00,0.00,0.00,0.00,0.00,0.00,0.00,0.00,0.00,0.00,0.00,0.00,0.00,0.00,0.00,0.00,0.00,0.00,0.00,0.00,0.00,0.00,0.00,0.00,0.00,0.00,0.00,0.00,0.00,0.00,0.00,0.00,1261.24,1275.46,1286.36,1292.60,1290.25,1278.18,1267.10,1257.39,1254.93,1252.36,1253.66,1254.90,1258.13,1266.00,1283.74,0.00,1365.51,1328.96,1297.64,1290.17,1296.70,1292.23,1283.01,1282.89,1284.55,1286.88,1292.49,1294.72,1290.44,1287.94,1288.92,1293.68,1296.78,1304.78,0.00,0.00,0.00,0.00,0.00,1404.97,1407.32,1408.19,1409.67,1409.98,1411.05,1411.87,1413.31,1414.02,1414.39,1414.11,1414.49,1415.21,1413.59,1413.74,1412.18,1413.64,1412.75,1414.05,1415.04,1415.81,1416.44,1417.92,1419.49,1420.23,1417.98,1417.34,1418.59,1419.70,1420.95,1420.37,1420.23,1420.02,1420.60,1421.71,1421.56,1421.35,1422.67,1423.06,1423.21,1422.82,1422.85,1424.19,1424.60,1426.12,1426.27,1427.41,1427.37,1426.77,1425.17,1425.40,1426.04,1426.42,1426.44,1424.37,1425.24,1425.11,1425.98,1425.46,1426.25,1426.69,1425.93,1427.06,1429.19,1430.27,1430.27,1429.58,1429.39,1429.36,1430.82,1432.45,1430.87,1429.87,1430.16,1430.59,1430.81,1429.76,1431.01,1431.52,1432.61,1432.61,1432.49,1432.72,1432.85,1433.34,1433.96,1434.94,1433.93,1432.58,1432.22,1434.55,1436.25,1436.07,1435.02,1434.67,1435.73,1436.26,1437.56,1438.35,1437.17,1436.58,1436.94,1437.52,1436.97,1436.64,1436.67,1436.80,1436.52,1438.09,1438.49,1439.58,1439.09,1438.79,1438.76,1440.38,1440.91,1442.16,1440.19,1440.73,1439.94,1442.02,1442.63,1442.44,1442.54,1442.58,1442.67,1441.57,1442.40,1442.86,1444.97,1444.72,1446.17,1445.49,1445.34,1444.56,1445.63,1446.45,1446.57,1446.89,1447.80,1448.17,1447.38,1446.84,1447.58,1449.22,1449.53,1449.67,1449.65,1450.14,1450.34,1449.72,1449.73,1450.88,1451.57,1452.11,1451.93,1452.38,1453.38,1453.05,1452.72,1452.20,1453.04,1455.11,1455.34,1454.49,1454.55,1455.26,1456.37,1455.39,1455.85,1457.26,1456.75,1456.54,1456.92,1460.34,1461.42,1460.67,1458.75,1460.13,1460.37,1459.66,1459.35,1460.92,1463.17,1463.67,1462.80,1461.80,1460.40,1462.16,1463.64,1465.94,1466.51,1466.84,1465.99,1465.85,1465.44,1466.22,1465.87,1467.86,1468.55,1468.83,1468.06,1469.00,1470.56,1471.72,1471.92,1472.72,1472.17,1472.18,1472.38,1473.70,1474.62,1473.47,1473.74,1473.88,1476.32,1475.72,1475.87,1475.58,1476.16,1476.79,1476.20,1478.05,1477.82,1478.93,1479.22,1480.68,1481.45,1480.75,1479.25,1480.04,1480.78,1481.93,1481.54,1482.38,1483.80,1484.05,1484.08,1484.45,1485.15,1487.20,1488.96,1490.34,1489.41,1487.62,1488.32,1488.64,1490.74,1489.20,1490.23,1488.22,1487.80,1485.71,1486.94,1487.68,1489.22,1488.65,1490.46,1491.94,1493.17,1494.73,1493.03,1491.60,1489.26,1490.15,1492.47,1493.36,1492.97,1492.02,1493.27,1493.40,1492.35,1490.38,1492.51,1494.25,1494.52,1493.72,1494.06,1492.52,1493.37,1494.48,1497.30,1495.07,1492.45,1494.84,1495.20,1497.39,1491.65,1491.07,1487.92,1490.23,1489.85,1493.37,1493.01,1491.70,0.00,0.00,0.00,0.00,0.00,0.00,0.00,0.00,0.00,0.00,0.00,0.00,0.00,0.00,0.00,0.00,0.00,0.00,0.00,0.00,0.00,0.00,0.00,0.00,0.00,0.00,0.00,0.00,0.00,0.00,0.00,0.00,0.00,0.00,0.00,0.00,0.00,0.00,0.00,0.00,0.00,0.00,0.00,0.00,0.00,0.00,0.00,0.00,0.00,0.00,0.00,0.00,0.00,0.00,0.00,0.00,0.00,0.00,0.00,0.00,0.00,0.00,0.00,0.00,0.00,0.00,0.00,0.00,0.00,0.00,0.00,0.00,0.00,0.00,0.00,0.00,0.00,0.00,0.00,0.00,0.00,0.00,0.00,0.00,0.00,0.00,0.00,0.00,0.00,0.00,0.00,0.00,0.00,0.00,0.00,0.00,0.00,0.00,0.00,0.00,0.00,0.00,0.00,0.00,0.00,0.00,0.00,0.00,0.00,0.00,0.00,0.00,0.00,0.00,0.00,0.00,0.00,0.00,0.00,0.00,0.00,0.00,0.00,0.00,0.00,0.00,0.00
