0.00,0.00,0.00,0.00,0.00,0.00,0.00,0.00,0.00,0.00,0.00,0.00,0.00,0.00,0.00,0.00,0.00,0.00,0.00,0.00,0.00,0.00,0.00,0.00,0.00,0.00,0.00,0.00,0.00,1592.14,1608.37,1612.82,1612.71,1612.91,1613.34,1616.10,1618.38,1621.11,1620.37,1621.49,1621.12,1622.17,1623.25,1626.08,1627.35,1629.34,1629.33,1628.69,1627.66,1628.98,1631.13,1632.66,1632.72,1632.30,1629.37,1628.23,1627.00,1627.01,1626.71,1627.72,1629.34,1627.68,1627.28,1626.41,1628.32,1628.45,1629.45,1628.90,1630.02,1629.95,1631.38,1631.36,1632.97,1631.38,1632.76,1633.87,1634.99,1633.50,1631.78,1632.72,1632.12,1632.07,1632.02,1633.03,1633.79,1635.10,1635.03,1634.91,1634.59,1636.18,1637.47,1638.48,1638.34,1639.80,1639.19,1639.31,1633.68,1629.48,1626.93,1627.36,1629.39,0.00,0.00,0.00,1312.05,1306.89,1322.68,0.00,1308.52,0.00,0.00,1614.54,1627.71,1630.48,1629.83,1628.53,1628.21,1628.60,1628.11,1627.68,0.00,0.00,0.00,0.00,0.00,0.00,0.00,0.00,0.00,0.00,0.00,0.00,0.00,0.00,0.00,0.00,0.00,0.00,0.00,0.00,0.00,0.00,0.00,0.00,0.00,0.00,0.00,0.00,0.00,0.00,0.00,0.00,0.00,0.00,0.00,0.00,0.00,0.00,0.00,0.00,0.00,0.00,0.00,0.00,686.47,697.15,703.73,706.80,707.42,707.16,707.17,707.05,706.77,708.45,710.01,708.82,706.87,705.14,706.56,706.75,707.10,706.59,707.22,707.17,708.15,708.15,708.08,706.12,705.94,705.21,706.02,704.65,704.17,703.55,702.21,703.56,704.02,706.51,705.24,704.41,703.16,702.01,700.14,700.54,701.14,702.68,701.56,700.49,700.53,700.33,700.64,699.92,698.01,697.27,695.00,695.42,692.71,688.88,686.73,685.60,683.70,681.08,677.19,677.09,674.77,675.58,673.08,669.42,663.72,658.12,654.21,651.71,649.85,648.54,644.32,640.39,636.59,632.99,629.67,627.57,626.94,625.30,623.23,619.69,617.49,614.25,614.21,612.62,612.39,609.56,607.14,605.92,605.79,606.53,604.86,606.14,607.87,608.19,607.26,607.77,612.83,619.41,627.03,634.45,639.01,643.35,647.02,650.85,651.67,652.50,654.18,660.03,665.47,667.76,666.65,665.82,667.12,668.08,666.96,665.31,662.63,661.84,661.65,661.84,660.47,659.25,657.12,657.51,655.53,654.88,652.92,652.75,652.14,652.20,651.39,650.24,649.11,647.78,646.44,643.72,642.08,640.89,641.14,639.91,638.86,635.95,635.74,636.52,639.26,644.38,650.76,657.91,665.76,673.84,679.24,679.78,678.67,678.45,676.87,676.96,676.98,679.72,679.87,679.23,678.49,677.64,676.97,676.86,675.88,675.31,674.87,676.44,677.59,676.49,674.14,671.62,670.72,670.75,670.66,669.87,668.47,669.01,668.37,667.19,664.59,664.75,664.79,665.73,664.10,662.79,659.57,658.13,656.88,655.22,648.12,641.19,635.03,631.02,630.53,631.61,634.19,634.19,634.03,635.76,634.90,634.06,632.50,631.40,629.61,622.77,616.28,615.30,619.52,621.81,620.64,617.40,611.86,602.25,596.72,593.72,592.61,587.00,578.89,572.80,569.07,567.26,565.40,564.08,563.60,561.75,560.61,559.70,558.32,558.46,559.12,560.92,560.26,561.68,564.97,568.75,571.15,573.51,579.06,582.71,588.17,592.56,594.00,594.59,591.44,591.20,587.60,586.90,582.01,578.88,577.69,576.38,575.81,573.64,571.63,567.55,564.15,564.60,565.87,566.01,570.68,577.11,583.31,583.62,580.73,575.51,574.46,579.48,583.81,587.19,587.10,585.90,584.52,582.17,580.78,575.79,568.33,552.99,523.91,0.00,0.00,0.00,0.00,0.00,0.00,0.00,0.00,0.00,0.00,0.00,0.00,0.00,0.00,0.00,0.00,0.00,0.00,0.00,0.00,0.00,0.00,0.00,0.00,0.00,0.00,0.00,0.00,0.00,0.00,0.00,0.00,0.00,0.00,0.00,0.00,0.00,0.00,0.00,0.00,0.00,0.00,0.00,0.00,0.00,0.00,0.00,0.00,0.00,0.00,0.00,0.00
0.00,0.00,0.00,0.00,0.00,0.00,0.00,0.00,0.00,0.00,0.00,0.00,0.00,0.00,0.00,0.00,0.00,0.00,0.00,0.00,0.00,0.00,0.00,0.00,0.00,0.00,0.00,0.00,0.00,1583.04,1605.73,1611.68,1613.16,1612.79,1615.08,1617.17,1618.86,1621.60,1621.70,1623.50,1622.40,1621.41,1621.98,1624.39,1628.56,1631.19,1631.40,1629.23,1627.87,1629.34,1631.90,1632.58,1633.69,1632.34,1631.14,1628.75,1628.49,1626.87,1626.06,1626.95,1628.54,1628.62,1628.93,1628.83,1629.17,1627.25,1629.87,1630.28,1632.63,1632.04,1633.30,1632.26,1631.76,1630.28,1632.01,1633.47,1635.00,1633.95,1632.65,1633.39,1633.24,1632.41,1632.41,1633.88,1635.21,1636.13,1636.02,1636.21,1636.72,1638.60,1639.52,1638.61,1637.48,1638.72,1639.88,1640.33,1635.48,1630.38,1627.51,1627.86,1628.98,0.00,0.00,0.00,0.00,1300.01,1322.88,0.00,1315.48,0.00,0.00,1613.34,1627.36,1630.28,1629.54,1627.53,1627.80,1628.96,1629.50,1629.43,1629.09,1627.75,0.00,0.00,0.00,0.00,0.00,0.00,0.00,0.00,0.00,0.00,0.00,0.00,0.00,0.00,0.00,0.00,0.00,0.00,0.00,0.00,0.00,0.00,0.00,0.00,0.00,0.00,0.00,0.00,0.00,0.00,0.00,0.00,0.00,0.00,0.00,0.00,0.00,0.00,0.00,0.00,664.51,685.66,697.48,704.26,707.13,708.04,708.07,706.33,706.60,707.13,707.61,707.88,708.51,707.78,706.94,705.29,706.41,706.77,708.13,708.08,708.07,708.54,709.58,709.21,707.81,705.76,706.17,706.08,707.52,705.73,705.90,705.33,705.58,704.75,703.91,705.60,706.94,706.48,705.74,703.26,703.36,703.88,704.60,704.83,702.44,702.57,702.78,702.56,701.63,700.23,699.17,698.05,696.29,695.37,693.62,689.96,688.22,685.94,684.07,681.33,679.62,679.22,676.65,674.30,671.28,667.75,663.44,659.01,655.70,653.56,652.87,652.46,648.12,642.81,637.87,634.51,632.15,629.52,628.71,626.69,624.33,619.44,616.32,614.10,614.45,612.88,612.19,610.09,607.27,605.45,604.89,606.09,604.48,604.87,605.05,605.62,604.69,605.80,610.14,615.56,620.85,626.28,631.11,638.22,643.93,648.64,650.35,649.86,650.94,654.90,661.39,665.22,666.22,665.07,666.40,667.22,667.61,665.43,662.91,662.10,663.20,662.93,661.51,659.50,657.76,658.12,657.19,656.58,655.01,653.57,653.57,653.13,652.75,650.62,650.61,650.22,649.83,646.63,644.29,642.85,642.61,640.74,639.11,635.63,635.98,635.74,638.03,639.19,641.55,644.20,650.45,660.45,671.54,676.88,677.88,676.47,675.13,674.31,674.09,675.68,677.65,678.43,678.97,677.16,677.94,677.50,677.23,674.59,674.12,674.13,675.79,673.93,672.44,670.63,671.09,670.71,669.76,668.60,668.06,668.38,668.36,667.60,665.68,664.65,665.38,664.11,660.05,653.42,649.00,645.19,642.89,637.08,629.19,621.50,618.85,615.86,615.68,614.84,616.82,616.31,615.40,614.40,611.85,608.46,606.60,606.19,604.53,598.58,593.99,592.26,592.14,591.24,589.11,588.16,583.37,578.39,576.47,575.90,574.59,569.60,564.13,559.94,557.44,554.87,554.13,553.47,552.42,549.40,548.97,550.49,550.58,549.43,549.65,551.67,551.56,551.53,550.75,551.22,552.27,554.15,557.13,560.90,566.61,573.70,579.61,582.92,583.07,583.67,582.97,580.07,572.30,564.43,561.98,562.48,562.46,559.87,556.64,551.97,549.42,547.82,548.70,548.09,551.23,560.48,572.84,578.21,577.99,575.57,577.40,580.58,583.48,585.85,587.07,586.10,584.97,581.60,577.75,568.71,558.21,538.79,502.98,0.00,0.00,0.00,0.00,0.00,0.00,0.00,0.00,0.00,0.00,0.00,0.00,0.00,0.00,0.00,0.00,0.00,0.00,0.00,0.00,0.00,0.00,0.00,0.00,0.00,0.00,0.00,0.00,0.00,0.00,0.00,0.00,0.00,0.00,0.00,0.00,0.00,0.00,0.00,0.00,0.00,0.00,0.00,0.00,0.00,0.00,0.00,0.00,0.00,0.00,0.00,0.00
0.00,0.00,0.00,0.00,0.00,0.00,0.00,0.00,0.00,0.00,0.00,0.00,0.00,0.00,0.00,0.00,0.00,0.00,0.00,0.00,0.00,0.00,0.00,0.00,0.00,0.00,0.00,0.00,0.00,0.00,1597.64,1606.55,1609.08,1610.97,1613.70,1615.39,1615.34,1618.23,1620.17,1622.65,1621.06,1621.30,1620.03,1622.83,1623.99,1626.89,1626.33,1626.61,1626.74,1629.49,1630.03,1628.58,1628.02,1628.62,1630.55,1629.27,1627.13,1624.78,1623.51,1624.79,1626.42,1626.51,1627.15,1626.38,1626.63,1624.33,1626.32,1627.53,1629.22,1629.19,1629.81,1629.37,1629.24,1628.64,1630.53,1631.86,1633.22,1631.54,1629.29,1629.84,1631.55,1631.85,1631.64,1632.81,1633.52,1633.98,1632.55,1633.42,1633.85,1636.19,1635.82,1635.53,1635.02,1636.22,1637.48,1636.89,1632.59,1627.35,1625.54,1626.44,1627.53,0.00,0.00,0.00,0.00,1292.08,1309.20,1337.20,1324.11,1344.86,0.00,1610.26,1624.30,1629.33,1629.52,1627.94,1627.77,1628.89,1629.05,1628.70,1627.89,0.00,0.00,0.00,0.00,0.00,0.00,0.00,0.00,0.00,0.00,0.00,0.00,0.00,0.00,0.00,0.00,0.00,0.00,0.00,0.00,0.00,0.00,0.00,0.00,0.00,0.00,0.00,0.00,0.00,0.00,0.00,0.00,0.00,0.00,0.00,0.00,0.00,0.00,0.00,0.00,666.19,679.45,691.26,699.11,703.53,704.93,705.30,705.46,705.32,705.38,706.54,706.91,706.63,705.90,705.44,705.74,704.24,703.33,703.98,706.37,707.17,705.84,704.99,705.60,705.58,705.48,704.45,705.18,704.56,704.23,702.92,702.59,704.14,704.04,704.34,702.72,703.61,704.68,704.56,703.45,701.52,702.17,704.11,703.85,702.71,699.68,699.97,699.78,699.57,698.34,698.47,697.65,697.39,695.82,694.03,690.92,687.78,686.08,685.09,683.89,682.01,680.16,679.11,676.77,672.72,667.63,663.00,658.29,654.77,651.03,649.44,647.27,647.08,643.54,640.79,635.52,631.18,627.65,625.90,625.21,622.89,619.40,615.69,613.21,611.85,611.35,610.02,608.60,606.65,604.65,603.24,600.50,600.56,599.14,600.87,599.48,599.43,598.75,600.69,605.41,608.77,611.44,614.46,620.93,630.44,637.77,643.33,645.70,646.12,645.81,648.24,653.49,658.08,659.73,659.43,661.43,663.56,663.25,662.31,659.76,660.81,660.55,660.29,657.50,655.63,653.82,654.07,653.92,653.99,653.06,650.94,650.05,647.92,647.68,645.50,646.82,647.54,648.47,645.58,642.17,640.47,638.67,636.26,634.49,632.41,633.11,632.06,631.89,631.20,631.39,633.12,637.28,645.41,657.00,666.64,671.34,671.87,671.40,670.85,670.57,670.73,670.81,672.28,672.30,671.34,671.06,670.65,671.69,669.84,669.62,669.38,670.20,668.78,666.57,666.03,666.19,665.90,663.98,663.66,664.06,666.65,666.62,665.19,660.99,658.53,656.02,651.26,642.51,634.83,629.64,626.81,624.77,621.20,616.51,611.16,609.73,608.58,608.98,607.43,606.60,605.17,603.08,601.46,597.06,593.03,590.89,590.26,589.07,585.72,582.45,581.52,580.20,579.76,576.24,575.70,570.60,569.57,568.22,567.36,563.11,557.78,553.24,550.69,548.97,547.24,547.31,547.26,546.52,544.39,544.23,545.91,544.82,544.31,543.72,546.72,547.21,548.64,546.71,546.60,547.21,547.14,547.22,547.48,549.96,553.13,555.52,559.10,561.70,564.87,566.58,563.93,557.37,550.68,549.42,551.25,552.34,551.10,548.99,546.37,542.99,539.09,538.39,536.55,537.38,540.67,554.45,567.50,572.69,574.28,576.00,577.98,579.29,581.78,583.44,582.44,580.50,575.84,568.95,556.42,542.25,517.75,0.00,0.00,0.00,0.00,0.00,0.00,0.00,0.00,0.00,0.00,0.00,0.00,0.00,0.00,0.00,0.00,0.00,0.00,0.00,0.00,0.00,0.00,0.00,0.00,0.00,0.00,0.00,0.00,0.00,0.00,0.00,0.00,0.00,0.00,0.00,0.00,0.00,0.00,0.00,0.00,0.00,0.00,0.00,0.00,0.00,0.00,0.00,0.00,0.00,0.00,0.00,0.00,0.00
0.00,0.00,0.00,0.00,0.00,0.00,0.00,0.00,0.00,0.00,0.00,0.00,0.00,0.00,0.00,0.00,0.00,0.00,0.00,0.00,0.00,0.00,0.00,0.00,0.00,0.00,0.00,0.00,0.00,0.00,1589.84,1602.05,1605.18,1608.87,1611.89,1613.79,1613.11,1616.16,1619.17,1621.19,1621.24,1621.54,1623.25,1624.45,1625.31,1624.64,1623.74,1624.87,1627.15,1629.24,1628.49,1627.22,1628.77,1629.31,1632.20,1630.02,1629.63,1626.38,1626.24,1625.05,1625.25,1625.16,1627.01,1626.93,1627.09,1625.10,1627.32,1627.46,1628.55,1628.22,1628.84,1629.03,1629.41,1629.69,1630.81,1631.46,1632.92,1632.67,1631.91,1632.37,1633.65,1634.14,1633.86,1634.64,1634.65,1634.88,1633.59,1634.26,1634.41,1636.27,1636.22,1637.18,1637.52,1638.36,1638.46,1636.65,1632.50,1627.73,1626.84,1627.14,1629.09,0.00,0.00,0.00,0.00,1292.59,1307.90,1339.42,1336.14,1341.28,0.00,1607.93,1624.61,1632.30,1633.05,1632.45,1632.24,1633.17,1632.20,1631.51,1630.18,1629.42,1627.46,0.00,0.00,0.00,0.00,0.00,0.00,0.00,0.00,0.00,0.00,0.00,0.00,0.00,0.00,0.00,0.00,0.00,0.00,0.00,0.00,0.00,0.00,0.00,0.00,0.00,0.00,0.00,0.00,0.00,0.00,0.00,0.00,0.00,0.00,0.00,656.99,667.82,674.10,682.31,689.54,696.87,701.99,704.44,704.32,703.71,702.99,703.49,704.45,706.02,706.99,705.57,706.13,707.26,708.39,706.95,705.14,705.80,707.54,707.12,706.16,705.03,706.11,706.84,706.11,705.46,705.26,705.42,704.63,703.51,704.31,705.89,706.85,706.28,705.39,704.70,706.02,705.70,706.07,704.26,704.94,705.68,0.00,704.58,702.77,700.54,700.15,698.94,699.17,697.96,698.45,698.54,699.44,696.47,693.66,688.17,686.46,685.13,686.29,683.25,681.31,677.98,675.94,670.91,667.33,664.37,660.52,655.69,652.04,650.61,649.70,647.68,644.17,641.16,636.57,631.14,627.37,626.10,625.91,622.20,618.85,616.06,615.15,613.09,610.44,609.11,607.42,606.61,605.60,604.82,602.11,600.11,599.12,599.18,597.01,597.31,596.83,599.21,602.85,605.48,607.64,608.02,612.49,620.29,629.61,637.90,643.74,645.91,646.86,647.51,650.16,654.09,657.33,658.66,660.32,660.57,661.31,661.23,660.39,660.46,659.70,659.15,658.23,657.05,655.83,655.28,655.79,655.69,654.37,650.87,650.67,648.39,649.59,647.24,648.16,648.12,648.86,647.13,643.60,641.34,638.68,637.31,635.48,634.31,633.50,631.97,630.94,629.95,630.63,633.65,636.98,640.84,646.04,654.65,663.60,668.96,671.31,671.64,670.80,669.74,669.03,668.12,668.17,667.68,669.73,668.40,669.47,667.04,667.76,667.89,668.67,668.02,666.32,666.27,665.95,666.05,664.34,663.81,663.99,665.65,664.83,659.56,652.14,644.97,640.12,633.17,626.38,620.99,620.39,618.33,617.52,614.54,614.11,610.66,610.46,610.59,612.09,609.22,605.11,602.50,600.87,598.77,594.49,590.55,589.03,587.81,586.55,584.72,583.13,580.89,574.77,571.11,567.75,569.21,567.55,566.09,563.80,560.97,557.79,553.72,551.21,548.84,547.06,544.82,545.21,545.58,545.27,544.39,0.00,545.09,544.10,543.15,0.00,545.77,546.31,547.30,546.09,546.65,547.39,546.97,546.95,546.31,547.92,547.71,547.41,549.14,551.80,554.99,554.87,553.23,549.39,546.30,546.82,548.54,549.34,548.87,548.66,546.90,543.87,539.39,538.67,536.53,536.35,534.93,540.35,553.61,564.96,571.50,575.37,576.38,577.61,579.64,582.35,581.14,578.11,572.06,563.87,548.36,527.02,0.00,0.00,0.00,0.00,0.00,0.00,0.00,0.00,0.00,0.00,0.00,0.00,0.00,0.00,0.00,0.00,0.00,0.00,0.00,0.00,0.00,0.00,0.00,0.00,0.00,0.00,0.00,0.00,0.00,0.00,0.00,0.00,0.00,0.00,0.00,0.00,0.00,0.00,0.00,0.00,0.00,0.00,0.00,0.00,0.00,0.00,0.00,0.00,0.00,0.00,0.00,0.00,0.00,0.00
0.00,0.00,0.00,0.00,0.00,0.00,0.00,0.00,0.00,0.00,0.00,0.00,0.00,0.00,0.00,0.00,0.00,0.00,0.00,0.00,0.00,0.00,0.00,0.00,0.00,0.00,0.00,0.00,0.00,0.00,1578.47,1592.49,1598.49,1605.10,1608.52,1609.89,1609.47,1611.79,1612.64,1613.98,1615.48,1618.75,1621.91,1623.89,1622.98,1622.79,1620.32,1622.60,1624.00,1627.58,1627.24,1626.18,1626.33,1627.18,1630.19,1628.91,1627.34,1624.50,1624.14,1622.66,1622.65,1622.52,1625.11,1625.57,1625.62,1624.87,1625.76,1625.82,1625.41,1624.83,1625.30,1625.72,1627.10,1628.14,1628.82,1629.85,1630.59,1630.61,1629.87,1630.41,1631.09,1631.28,1631.69,1632.22,1632.01,1631.54,1632.03,1633.53,1633.94,1633.79,1632.73,1634.77,1636.34,1637.44,1636.68,1633.78,1630.28,1626.07,1625.79,1624.47,1625.39,0.00,0.00,0.00,0.00,1296.19,1305.55,1337.03,1333.65,1324.80,0.00,1598.26,1622.02,1633.20,1634.60,1633.93,1633.86,1634.86,1634.41,1633.24,1631.64,1630.79,0.00,0.00,0.00,0.00,0.00,0.00,0.00,0.00,0.00,0.00,0.00,0.00,0.00,0.00,0.00,0.00,0.00,0.00,0.00,0.00,0.00,0.00,0.00,0.00,0.00,0.00,0.00,0.00,0.00,0.00,0.00,0.00,0.00,0.00,0.00,0.00,674.41,679.92,684.04,688.68,693.54,697.10,698.76,700.43,700.90,701.35,700.67,702.73,703.81,705.98,705.16,704.14,702.80,703.26,703.24,703.34,703.31,703.48,704.24,703.60,704.85,705.12,706.57,706.64,704.28,703.61,702.60,704.04,702.68,702.80,702.33,704.10,703.33,704.04,702.79,703.19,703.52,704.64,704.74,702.28,701.24,701.99,702.02,701.67,700.79,699.19,698.26,696.65,698.81,697.91,698.70,697.55,698.33,694.70,691.74,686.43,683.88,681.99,682.39,680.63,678.05,674.69,672.35,668.89,666.10,664.07,659.56,653.66,650.01,649.29,647.90,643.59,639.43,637.46,633.87,628.53,623.93,622.70,622.53,618.99,616.44,613.81,613.55,610.73,607.22,605.73,603.35,602.46,602.34,602.44,599.50,597.34,595.74,594.43,591.03,591.51,592.24,594.90,597.15,599.94,601.27,601.31,604.22,608.77,616.59,624.24,632.36,638.74,642.00,643.95,644.20,646.84,649.48,654.47,657.34,658.28,656.88,657.03,657.03,657.42,656.29,654.83,652.71,651.67,650.93,651.57,651.01,650.22,648.84,647.14,646.73,645.90,647.63,646.86,645.83,645.00,644.15,643.44,639.12,638.20,635.71,634.08,630.15,629.06,627.96,628.70,626.63,627.72,627.49,631.23,632.48,634.58,636.27,643.85,652.62,662.10,665.31,668.22,667.92,666.82,663.21,661.07,660.81,662.36,664.04,662.96,663.12,661.93,663.76,663.70,663.13,662.19,662.04,663.27,663.24,663.96,663.56,662.55,659.86,655.30,649.30,641.84,634.76,629.00,625.47,620.78,616.30,612.09,612.77,612.28,611.96,609.83,609.30,606.81,605.69,605.52,605.66,604.45,600.46,600.09,597.59,596.37,590.77,586.72,583.41,581.73,581.17,580.12,578.11,573.83,568.34,565.86,565.02,566.88,566.71,563.69,559.77,555.02,550.99,547.76,545.36,543.99,542.53,541.34,541.68,542.08,543.00,543.69,0.00,541.74,0.00,0.00,0.00,543.73,545.11,545.05,545.86,545.04,544.73,542.95,543.99,544.82,546.93,545.82,544.11,544.54,545.13,547.66,547.74,548.15,546.77,546.04,546.42,546.39,545.50,544.47,544.65,543.60,540.96,537.50,537.35,535.88,536.17,532.79,533.68,538.23,548.91,559.65,566.30,568.71,570.55,571.87,574.35,572.89,570.43,563.39,554.05,533.84,505.57,0.00,0.00,0.00,0.00,0.00,0.00,0.00,0.00,0.00,0.00,0.00,0.00,0.00,0.00,0.00,0.00,0.00,0.00,0.00,0.00,0.00,0.00,0.00,0.00,0.00,0.00,0.00,0.00,0.00,0.00,0.00,0.00,0.00,0.00,0.00,0.00,0.00,0.00,0.00,0.00,0.00,0.00,0.00,0.00,0.00,0.00,0.00,0.00,0.00,0.00,0.00,0.00,0.00,0.00
0.00,0.00,0.00,0.00,0.00,0.00,0.00,0.00,0.00,0.00,0.00,0.00,0.00,0.00,0.00,0.00,0.00,0.00,0.00,0.00,0.00,0.00,0.00,0.00,0.00,0.00,0.00,0.00,0.00,0.00,0.00,1574.50,1584.77,1596.01,1601.36,1604.05,1605.13,1609.26,1611.81,1612.35,1614.48,1616.30,1620.98,1622.98,1624.03,1623.08,1620.98,1622.52,1625.55,1628.32,1627.03,1625.66,1627.08,1627.56,1630.34,1629.14,1629.58,1626.37,1624.97,1623.04,1622.94,1623.39,1625.84,1626.57,1626.56,1625.90,1627.29,1626.63,1625.99,1625.31,1625.78,1626.24,1627.29,1629.07,1629.58,1629.70,1630.31,1629.58,1629.82,1630.16,1631.55,1631.36,1632.14,1631.95,1632.84,1632.30,1634.36,1634.54,1635.27,1633.98,1634.45,1635.53,1637.34,1638.39,1637.61,1634.18,1629.70,1626.55,1627.16,1625.73,1627.02,1628.86,0.00,0.00,0.00,1308.61,1312.27,1332.68,0.00,1313.32,0.00,0.00,1621.10,1633.45,1635.57,1634.97,1635.42,1636.30,1636.01,1634.99,1633.59,1632.66,1632.08,0.00,0.00,0.00,0.00,0.00,0.00,0.00,0.00,0.00,0.00,0.00,0.00,0.00,0.00,0.00,0.00,0.00,0.00,0.00,0.00,0.00,0.00,0.00,0.00,0.00,0.00,0.00,0.00,0.00,0.00,0.00,0.00,0.00,0.00,675.98,687.22,690.01,692.42,694.30,696.95,698.57,700.02,701.09,701.41,701.10,701.85,703.65,704.89,706.62,705.69,704.09,702.71,702.65,703.47,703.47,704.82,704.33,703.81,702.89,704.82,706.73,708.33,708.10,705.32,704.67,703.46,705.11,705.19,705.89,706.04,706.24,705.83,704.82,703.95,703.64,705.37,706.39,706.75,704.17,702.79,704.23,703.88,704.54,702.86,701.71,700.22,699.46,701.68,700.96,700.79,697.99,697.89,694.61,693.61,687.95,684.57,680.75,680.72,679.86,678.11,674.94,671.30,668.26,666.76,666.10,661.46,655.74,652.68,652.13,651.36,644.74,640.54,637.54,637.05,632.96,628.46,625.11,624.66,621.34,619.43,614.78,613.27,609.12,606.71,606.30,605.46,604.78,602.94,602.01,599.76,598.21,596.87,594.39,591.59,592.64,593.30,595.55,595.96,597.96,598.52,598.41,600.73,602.57,607.97,613.06,620.54,628.55,637.11,642.83,644.11,645.34,647.38,651.80,655.38,656.58,656.86,656.79,657.54,656.01,655.78,654.68,653.92,652.49,651.92,651.98,651.73,650.28,649.50,648.47,648.53,648.70,649.52,648.94,646.55,645.15,643.84,642.64,639.23,637.80,637.28,635.56,632.13,629.72,628.89,629.37,628.78,630.45,630.74,631.89,630.22,630.94,631.65,638.40,644.01,652.84,657.69,663.15,665.24,665.49,664.80,663.07,663.14,663.02,664.28,663.21,663.55,660.56,662.63,661.98,662.90,660.25,660.27,661.72,664.63,666.90,666.40,660.46,652.09,640.62,632.53,626.85,623.76,619.59,617.85,615.21,614.25,611.54,612.12,610.89,609.64,607.65,606.63,606.03,605.38,605.85,604.60,602.96,599.15,599.30,596.63,595.43,589.81,586.93,583.97,582.42,580.88,579.06,575.32,569.39,564.70,563.17,564.59,566.35,566.32,560.88,556.76,552.05,549.76,547.45,546.56,545.69,545.05,543.64,543.00,542.48,543.64,0.00,0.00,542.41,539.80,540.06,0.00,0.00,546.82,546.37,546.43,545.44,543.86,542.48,543.68,544.95,547.58,0.00,544.79,543.74,544.76,546.15,546.83,546.56,546.43,546.72,547.32,545.66,543.97,543.04,544.09,543.66,541.93,540.75,541.16,540.07,539.09,535.75,534.69,533.88,537.34,544.07,553.23,559.71,564.87,567.02,568.99,567.24,564.70,556.38,542.84,515.78,0.00,0.00,0.00,0.00,0.00,0.00,0.00,0.00,0.00,0.00,0.00,0.00,0.00,0.00,0.00,0.00,0.00,0.00,0.00,0.00,0.00,0.00,0.00,0.00,0.00,0.00,0.00,0.00,0.00,0.00,0.00,0.00,0.00,0.00,0.00,0.00,0.00,0.00,0.00,0.00,0.00,0.00,0.00,0.00,0.00,0.00,0.00,0.00,0.00,0.00,0.00,0.00,0.00,0.00,0.00
0.00,0.00,0.00,0.00,0.00,0.00,0.00,0.00,0.00,0.00,0.00,0.00,0.00,0.00,0.00,0.00,0.00,0.00,0.00,0.00,0.00,0.00,0.00,0.00,0.00,0.00,0.00,0.00,0.00,0.00,0.00,0.00,1553.03,1573.82,1586.31,1588.57,1593.00,1600.96,1604.96,1606.97,1609.51,1612.84,1616.31,1618.52,1619.40,1621.23,1619.39,1619.49,1620.97,1624.78,1625.39,1624.35,1623.01,1623.41,1625.52,1626.96,1626.84,1624.11,1622.68,1621.70,1622.54,1623.09,1624.21,1624.69,1624.04,1624.07,1624.03,1623.96,1623.63,1623.41,1625.05,1625.57,1626.79,1627.76,1628.80,1629.44,1628.58,1626.63,1626.15,1627.08,1629.29,1628.14,1627.87,1628.26,1630.16,1631.01,1632.39,1633.39,1633.27,1632.14,1631.94,1632.98,1633.44,1634.12,1633.52,1630.73,1626.39,1624.48,1625.03,1624.42,1624.20,1624.80,0.00,0.00,0.00,1317.62,1310.31,1324.57,0.00,1311.15,1353.85,0.00,1616.56,1628.82,1633.05,1631.40,1631.70,1631.41,1633.49,1631.95,1631.91,1630.23,1630.80,0.00,0.00,0.00,0.00,0.00,0.00,0.00,0.00,0.00,0.00,0.00,0.00,0.00,0.00,0.00,0.00,0.00,0.00,0.00,0.00,0.00,0.00,0.00,0.00,0.00,0.00,0.00,0.00,0.00,0.00,0.00,0.00,0.00,660.14,679.63,689.48,691.35,692.96,693.36,695.36,696.35,698.02,699.31,700.49,699.84,701.46,702.56,702.09,703.32,703.08,703.08,700.43,699.74,702.00,702.39,703.70,701.44,700.46,700.87,703.37,705.25,704.39,704.13,702.68,703.00,701.69,702.99,703.02,704.29,703.11,703.42,702.51,704.08,702.81,702.56,703.44,705.18,704.33,0.00,700.41,704.09,703.58,703.87,701.67,702.09,700.03,698.96,699.42,699.35,698.87,697.33,695.85,692.35,689.80,684.71,680.82,677.09,676.38,676.58,675.39,673.07,669.00,666.82,663.54,661.28,656.23,653.41,651.08,649.23,646.30,640.31,636.84,634.00,634.47,631.92,628.63,624.03,622.75,618.61,617.97,613.15,610.91,606.25,604.68,605.14,604.21,603.02,600.37,599.18,596.98,595.90,593.79,591.48,588.50,590.37,591.47,593.49,591.65,590.84,590.29,591.01,593.47,594.38,597.87,601.24,607.54,614.03,623.53,632.71,637.73,640.45,642.16,645.50,648.34,651.30,652.23,653.87,654.73,652.53,651.39,650.39,650.74,648.89,647.74,647.00,647.13,645.50,644.16,644.29,645.08,645.52,644.49,643.58,642.01,641.52,639.86,638.22,634.69,634.58,635.20,633.92,630.18,627.40,626.64,626.60,625.17,625.28,625.11,624.82,623.25,623.37,625.16,630.61,633.83,640.01,646.18,653.31,657.86,658.90,660.14,661.45,662.12,662.15,660.79,660.26,660.04,658.39,659.84,659.12,659.65,656.60,657.50,659.33,663.14,662.73,657.75,649.26,638.61,628.18,621.66,616.92,615.06,613.12,613.77,612.72,611.27,609.23,608.88,608.08,604.80,604.11,602.63,603.12,600.18,600.11,598.88,598.99,595.86,595.18,590.31,588.89,584.39,583.16,579.92,576.96,574.29,571.47,568.01,564.25,563.42,564.55,565.50,562.19,559.42,553.45,550.42,547.78,545.79,545.02,543.78,544.43,544.08,542.82,0.00,0.00,0.00,0.00,0.00,0.00,539.88,0.00,0.00,0.00,545.69,544.91,543.42,0.00,540.80,540.79,0.00,542.17,0.00,0.00,0.00,541.13,542.65,543.76,544.81,543.27,543.19,543.01,543.48,542.98,542.36,542.23,542.82,541.85,540.56,540.05,540.54,538.49,537.04,533.99,534.30,532.38,532.65,534.00,536.41,542.16,548.71,553.90,557.38,556.90,554.67,543.99,525.70,0.00,0.00,0.00,0.00,0.00,0.00,0.00,0.00,0.00,0.00,0.00,0.00,0.00,0.00,0.00,0.00,0.00,0.00,0.00,0.00,0.00,0.00,0.00,0.00,0.00,0.00,0.00,0.00,0.00,0.00,0.00,0.00,0.00,0.00,0.00,0.00,0.00,0.00,0.00,0.00,0.00,0.00,0.00,0.00,0.00,0.00,0.00,0.00,0.00,0.00,0.00,0.00,0.00,0.00,0.00,0.00
0.00,0.00,0.00,0.00,0.00,0.00,0.00,0.00,0.00,0.00,0.00,0.00,0.00,0.00,0.00,0.00,0.00,0.00,0.00,0.00,0.00,0.00,0.00,0.00,0.00,0.00,0.00,0.00,0.00,0.00,0.00,0.00,0.00,0.00,0.00,0.00,1564.39,1576.54,1590.63,1599.21,1604.42,1607.64,1611.29,1613.39,1615.81,1619.00,1620.34,1619.26,1621.03,1622.92,1625.08,1622.55,1623.79,1623.06,1625.65,1626.87,1627.20,1625.87,1624.79,1624.15,1624.60,1623.60,1623.67,1622.52,1622.75,1623.57,1623.97,1623.98,1623.42,1624.06,1624.47,1625.08,1626.35,1627.84,1629.31,1628.56,1627.50,1625.95,1626.84,1628.26,1630.85,1629.91,1628.93,1629.27,1631.00,1632.43,1631.90,1632.21,1631.02,1631.15,1632.22,1634.02,1634.48,1634.73,1633.87,1630.62,1625.39,1624.33,1625.60,1626.19,1626.25,1626.05,0.00,0.00,0.00,0.00,1304.15,1321.44,1336.40,1320.16,1353.25,0.00,1606.91,1621.67,1629.50,1629.02,1630.03,1629.88,1632.07,1631.48,1631.67,1629.34,1630.21,1627.64,0.00,0.00,0.00,0.00,0.00,0.00,0.00,0.00,0.00,0.00,0.00,0.00,0.00,0.00,0.00,0.00,0.00,0.00,0.00,0.00,0.00,0.00,0.00,0.00,0.00,0.00,0.00,0.00,0.00,0.00,0.00,0.00,665.50,683.35,691.54,692.42,693.68,693.79,696.02,696.32,698.20,699.29,700.65,699.86,701.40,701.88,702.13,702.12,703.05,702.84,702.62,702.35,705.97,705.41,705.82,703.28,702.96,702.66,702.88,703.20,702.41,703.45,703.15,703.94,703.12,704.54,704.52,705.01,703.75,704.42,705.63,707.12,706.65,704.53,705.16,705.78,705.72,703.04,702.56,705.30,705.97,705.88,703.86,703.59,701.69,700.50,699.33,699.09,698.11,697.71,695.91,693.66,691.24,686.69,682.42,678.61,678.29,677.44,677.10,674.64,671.18,668.77,664.72,661.96,656.15,654.26,651.68,648.51,645.22,640.53,638.21,635.21,635.84,632.68,630.29,625.48,624.68,619.75,618.34,614.38,612.62,609.10,606.73,606.64,604.96,604.43,601.42,599.96,597.68,595.99,593.98,592.97,591.86,592.17,591.47,591.54,589.62,587.98,587.71,588.79,590.38,590.10,592.63,595.26,599.45,602.26,609.17,620.31,630.78,636.76,639.39,641.05,643.70,646.73,650.65,653.47,654.97,652.19,651.72,651.32,652.44,649.99,648.43,646.84,646.46,645.94,645.73,645.77,646.05,645.48,644.61,642.94,642.88,641.97,641.15,638.47,636.21,634.90,635.57,634.75,633.24,630.08,629.22,626.58,626.17,624.16,625.20,622.56,621.03,619.12,621.55,625.17,627.49,630.40,636.75,644.68,651.93,653.34,656.50,658.59,660.31,661.66,661.67,662.51,661.94,660.86,661.78,661.80,662.53,659.79,659.45,657.87,656.02,651.84,645.44,638.07,629.21,622.57,618.20,614.78,614.27,613.50,613.75,611.76,610.57,610.07,609.52,607.85,603.78,603.37,602.49,603.98,601.82,602.67,602.10,600.49,597.11,593.88,589.63,586.86,584.11,582.38,579.29,576.31,574.16,571.53,567.56,565.03,565.47,566.82,564.13,557.94,555.13,552.17,550.05,0.00,545.67,545.88,0.00,0.00,0.00,0.00,0.00,0.00,0.00,0.00,0.00,0.00,0.00,0.00,0.00,0.00,545.21,545.01,543.83,0.00,0.00,543.72,542.98,0.00,0.00,0.00,541.00,541.41,545.01,545.51,546.19,544.44,544.24,542.70,543.02,543.07,543.43,544.01,544.98,544.33,542.80,541.78,540.67,538.77,537.96,537.75,537.77,536.31,535.08,533.86,532.21,532.90,535.78,538.03,541.44,542.26,539.88,529.64,512.77,0.00,0.00,0.00,0.00,0.00,0.00,0.00,0.00,0.00,0.00,0.00,0.00,0.00,0.00,0.00,0.00,0.00,0.00,0.00,0.00,0.00,0.00,0.00,0.00,0.00,0.00,0.00,0.00,0.00,0.00,0.00,0.00,0.00,0.00,0.00,0.00,0.00,0.00,0.00,0.00,0.00,0.00,0.00,0.00,0.00,0.00,0.00,0.00,0.00,0.00,0.00,0.00,0.00,0.00,0.00,0.00
0.00,0.00,0.00,0.00,0.00,0.00,0.00,0.00,0.00,0.00,0.00,0.00,0.00,0.00,0.00,0.00,0.00,0.00,0.00,0.00,0.00,0.00,0.00,0.00,0.00,0.00,0.00,0.00,0.00,0.00,0.00,0.00,0.00,0.00,0.00,0.00,0.00,0.00,0.00,1573.12,1583.10,1592.16,1598.07,1601.59,1605.97,1611.16,1613.79,1611.30,1611.34,1613.46,1613.75,1590.13,1575.39,1585.47,1605.07,1623.37,1621.90,1620.83,1620.74,1622.50,1623.67,1623.07,1622.56,1621.07,1620.65,1620.83,1620.32,1621.09,1621.12,1622.11,1622.16,1621.93,1622.97,1623.84,1625.37,1624.87,1623.59,1623.74,1624.57,1626.81,1627.71,1627.56,1626.47,1627.19,1627.71,1629.59,1629.04,1630.54,1628.96,1629.98,1629.86,1631.62,1630.83,1631.05,1630.73,1628.03,1623.07,1622.25,1622.58,1623.97,1622.99,1625.16,0.00,0.00,0.00,0.00,1293.88,1307.47,1332.52,1326.05,1331.34,0.00,0.00,1612.33,1623.74,1623.71,1625.02,1624.80,1627.26,1628.19,1629.02,1627.22,1627.65,0.00,0.00,0.00,0.00,0.00,0.00,0.00,0.00,0.00,0.00,0.00,0.00,0.00,0.00,0.00,0.00,0.00,0.00,0.00,0.00,0.00,0.00,0.00,0.00,0.00,0.00,0.00,0.00,0.00,0.00,0.00,0.00,0.00,659.96,681.98,688.99,690.59,692.08,693.56,696.37,696.20,696.76,696.94,698.34,697.68,697.25,697.72,698.12,699.12,699.02,700.29,700.68,701.69,702.88,702.52,702.07,700.61,700.35,700.64,700.51,700.89,699.66,700.79,700.16,701.74,700.88,701.96,700.86,701.46,700.63,701.83,702.80,705.37,703.49,701.24,700.01,702.81,703.67,702.20,701.73,702.53,702.62,701.45,701.46,702.79,701.75,699.44,696.73,696.33,696.19,697.07,694.01,691.55,688.20,684.76,681.46,678.26,677.62,674.95,673.41,672.53,670.45,668.38,662.06,659.46,654.92,653.52,649.63,645.89,642.23,638.53,636.21,634.25,634.35,629.68,626.62,622.07,621.88,617.26,615.12,612.62,610.82,609.05,605.55,604.42,602.17,601.86,599.18,597.27,595.19,593.36,591.46,590.12,589.05,588.50,587.90,587.51,583.63,582.05,581.14,583.95,583.39,584.29,585.84,588.41,591.03,592.47,595.75,603.22,612.80,624.52,630.25,635.43,637.13,640.04,643.14,646.37,648.34,646.61,647.05,647.47,647.63,645.47,643.87,643.14,642.48,642.79,642.07,642.59,642.18,642.33,641.44,641.41,641.78,640.80,638.36,636.15,633.52,633.22,632.54,632.37,629.40,627.28,625.89,623.67,622.04,619.98,619.65,616.77,616.34,615.62,618.71,619.70,622.31,623.75,628.26,633.81,640.68,644.74,648.30,651.10,652.98,654.85,655.77,658.32,659.55,661.35,661.39,661.84,660.91,658.35,656.62,652.40,646.05,640.01,632.13,626.43,619.50,615.66,612.46,610.64,609.90,610.63,610.68,609.45,606.62,605.58,606.09,604.91,601.42,0.00,599.24,600.41,597.96,598.80,597.24,596.70,593.68,591.04,585.60,583.60,581.03,578.26,574.28,571.58,570.38,568.02,565.13,564.45,564.08,562.72,557.44,551.91,549.81,547.76,544.97,0.00,0.00,0.00,0.00,0.00,0.00,0.00,0.00,0.00,0.00,0.00,0.00,0.00,0.00,0.00,0.00,0.00,544.15,0.00,0.00,542.51,542.10,542.05,540.91,0.00,0.00,0.00,0.00,0.00,0.00,544.13,544.43,543.79,543.81,542.63,542.05,542.16,542.47,542.66,542.08,540.60,540.21,540.07,538.40,535.93,536.87,538.25,539.37,536.44,535.31,533.49,531.59,530.20,530.17,529.60,528.79,527.14,524.31,517.65,504.51,0.00,0.00,0.00,0.00,0.00,0.00,0.00,0.00,0.00,0.00,0.00,0.00,0.00,0.00,0.00,0.00,0.00,0.00,0.00,0.00,0.00,0.00,0.00,0.00,0.00,0.00,0.00,0.00,0.00,0.00,0.00,0.00,0.00,0.00,0.00,0.00,0.00,0.00,0.00,0.00,0.00,0.00,0.00,0.00,0.00,0.00,0.00,0.00,0.00,0.00,0.00,0.00,0.00,0.00,0.00,0.00
0.00,0.00,0.00,0.00,0.00,0.00,0.00,0.00,0.00,0.00,0.00,0.00,0.00,0.00,0.00,0.00,0.00,0.00,0.00,0.00,0.00,0.00,0.00,0.00,0.00,0.00,0.00,0.00,0.00,0.00,0.00,0.00,0.00,0.00,0.00,0.00,0.00,0.00,0.00,0.00,0.00,0.00,0.00,1569.59,1584.79,1590.15,1592.35,1588.81,1589.27,0.00,1586.04,1561.65,1554.25,1563.26,1602.11,1621.63,1621.12,1619.83,1620.92,1623.92,1624.72,1623.25,1622.46,1621.21,1621.25,1620.47,1620.90,1621.73,1622.14,1622.59,1621.34,1620.80,1621.73,1622.49,1623.92,1622.56,1623.22,1623.36,1625.50,1626.94,1628.09,1627.80,1627.68,1628.09,1628.64,1630.37,1630.22,1631.41,1630.46,1631.54,1631.31,1631.60,1630.94,1630.91,1631.48,1628.66,1624.38,1622.44,1623.31,1624.34,1624.28,1625.56,0.00,0.00,0.00,0.00,1294.42,1305.81,1333.02,1329.00,1329.76,1343.84,0.00,0.00,1616.21,1622.87,1627.24,1628.16,1629.09,1631.42,1633.04,1632.02,1631.15,1629.34,0.00,0.00,0.00,0.00,0.00,0.00,0.00,0.00,0.00,0.00,0.00,0.00,0.00,0.00,0.00,0.00,0.00,0.00,0.00,0.00,0.00,0.00,0.00,0.00,0.00,0.00,0.00,0.00,0.00,0.00,0.00,0.00,654.57,680.35,689.95,691.50,694.02,695.82,699.36,698.52,699.09,697.73,698.16,697.47,697.19,697.72,698.50,699.68,699.39,699.83,700.29,702.62,702.66,702.47,702.08,702.55,702.92,702.55,702.36,703.17,702.22,701.85,701.49,703.07,703.64,704.46,704.28,703.78,702.55,702.81,704.10,704.77,703.50,702.22,702.33,704.39,705.20,704.37,704.63,703.78,703.33,702.28,702.51,703.19,702.20,700.80,698.22,697.23,696.78,696.74,693.48,690.89,688.88,686.89,685.46,681.85,680.70,675.10,673.57,671.92,672.11,669.36,664.20,661.67,658.12,655.10,650.00,645.07,641.87,638.44,637.68,634.54,635.51,630.00,627.35,622.28,621.64,617.86,615.00,612.32,611.93,611.24,607.64,604.00,602.36,602.62,600.83,597.77,595.15,593.13,592.62,592.04,590.92,588.88,588.34,588.12,585.47,584.41,583.99,585.70,584.56,585.27,586.26,587.47,587.58,588.63,589.62,594.48,599.20,608.74,617.44,627.28,633.10,636.98,640.98,643.81,645.80,645.71,648.00,648.17,646.44,644.48,643.55,643.00,642.24,642.72,643.81,644.34,644.16,643.47,643.26,643.57,643.88,642.45,640.00,638.32,636.82,636.04,633.67,632.07,629.39,628.04,626.46,624.71,622.38,621.22,620.15,618.28,617.60,616.95,618.01,616.58,618.75,620.09,623.47,626.55,631.72,637.37,643.04,646.66,649.51,651.35,654.36,658.22,661.16,661.86,659.76,659.43,657.97,654.46,651.08,646.23,638.78,631.70,626.30,621.91,617.64,612.77,611.21,610.35,610.74,610.44,0.00,0.00,0.00,606.75,0.00,0.00,0.00,601.57,601.06,601.95,602.08,602.50,600.25,598.27,595.13,592.19,587.99,586.41,582.56,578.70,575.09,574.21,572.94,571.13,567.75,567.23,565.29,562.43,556.48,551.59,549.90,548.38,0.00,0.00,0.00,0.00,0.00,0.00,0.00,0.00,0.00,548.42,0.00,0.00,0.00,0.00,0.00,0.00,0.00,0.00,0.00,0.00,0.00,543.98,0.00,543.39,543.11,544.28,544.42,0.00,0.00,0.00,0.00,0.00,544.32,544.91,545.95,545.58,544.76,543.50,543.40,542.78,541.61,540.84,541.41,541.70,540.00,538.20,540.20,542.28,542.34,539.20,537.49,535.48,533.76,531.31,531.00,530.36,529.17,526.82,522.66,516.32,504.50,0.00,0.00,0.00,0.00,0.00,0.00,0.00,0.00,0.00,0.00,0.00,0.00,0.00,0.00,0.00,0.00,0.00,0.00,0.00,0.00,0.00,0.00,0.00,0.00,0.00,0.00,0.00,0.00,0.00,0.00,0.00,0.00,0.00,0.00,0.00,0.00,0.00,0.00,0.00,0.00,0.00,0.00,0.00,0.00,0.00,0.00,0.00,0.00,0.00,0.00,0.00,0.00,0.00,0.00,0.00,0.00
0.00,0.00,0.00,0.00,0.00,0.00,0.00,0.00,0.00,0.00,0.00,0.00,0.00,0.00,0.00,0.00,0.00,0.00,0.00,0.00,0.00,0.00,0.00,0.00,0.00,0.00,0.00,0.00,0.00,0.00,0.00,0.00,0.00,0.00,0.00,0.00,0.00,0.00,0.00,0.00,0.00,0.00,0.00,0.00,0.00,0.00,0.00,0.00,0.00,0.00,1563.87,1553.24,1552.86,1566.21,1594.76,1615.83,1617.45,1616.91,1619.11,1622.37,1622.74,1620.80,1619.80,1619.50,1619.34,1618.09,1617.75,1618.27,1619.23,1620.89,1620.89,1620.76,1621.07,1621.13,1621.23,1621.09,1621.58,1621.47,1621.99,1623.76,1625.03,1624.94,1625.16,1626.04,1626.45,1627.15,1627.40,1629.36,1628.98,1630.05,1628.94,1628.92,1628.19,1627.61,1628.17,1624.54,1621.52,1619.44,1621.12,1622.44,1621.94,1622.89,1627.52,0.00,0.00,0.00,1296.83,1303.68,1330.17,1331.76,1318.64,1333.03,0.00,0.00,0.00,1619.92,1626.21,1627.70,1628.01,1629.53,1630.85,1630.86,0.00,0.00,0.00,0.00,0.00,0.00,0.00,0.00,0.00,0.00,0.00,0.00,0.00,0.00,0.00,0.00,0.00,0.00,0.00,0.00,0.00,0.00,0.00,0.00,0.00,0.00,0.00,0.00,0.00,0.00,0.00,0.00,0.00,0.00,628.29,670.10,686.11,689.91,691.28,692.84,696.22,697.58,698.28,696.37,695.65,695.51,695.35,696.14,695.22,697.24,696.59,698.34,697.63,700.74,699.99,700.38,699.02,699.69,700.00,700.81,701.25,701.25,699.57,698.62,698.14,699.64,700.54,701.52,701.46,700.43,700.10,701.39,702.02,702.34,700.91,701.20,700.64,701.55,700.83,700.67,702.05,702.68,701.19,699.76,699.67,701.33,701.12,700.14,697.27,695.38,694.80,695.45,691.95,688.53,685.76,685.27,684.00,680.92,677.79,672.68,669.97,669.36,669.84,667.66,662.31,659.23,655.45,651.25,645.43,641.59,638.63,636.32,635.26,633.10,632.74,626.96,623.25,619.28,618.86,616.09,613.60,609.86,609.25,608.05,605.83,602.69,600.58,600.10,597.64,594.30,592.13,591.77,591.94,589.97,586.96,584.96,584.77,584.52,582.82,582.18,581.02,581.29,579.95,581.37,582.42,583.72,583.80,585.22,585.92,587.29,587.89,593.23,599.90,611.00,619.41,627.21,633.14,638.19,640.73,641.98,644.26,644.38,642.21,640.30,639.60,639.41,639.09,639.71,640.49,642.04,641.87,641.21,638.96,639.17,639.48,639.47,636.92,635.60,634.08,633.73,630.65,628.75,625.87,624.89,622.18,620.94,618.17,617.72,616.64,615.58,615.14,612.73,612.41,610.55,613.09,615.34,618.07,619.54,621.79,627.82,634.70,641.71,645.11,646.11,647.00,650.04,652.64,651.19,648.23,647.34,648.72,645.59,641.83,636.42,631.11,625.75,620.72,615.42,611.53,607.54,607.15,606.73,607.07,0.00,0.00,607.25,605.10,0.00,0.00,0.00,0.00,598.72,599.08,600.49,600.32,599.75,597.43,595.43,592.15,589.34,584.08,583.48,580.03,578.01,573.91,571.36,567.83,566.60,564.53,565.21,562.07,559.33,553.49,549.99,547.53,546.04,0.00,0.00,0.00,0.00,0.00,0.00,0.00,0.00,551.30,551.94,0.00,551.76,0.00,0.00,0.00,0.00,0.00,0.00,0.00,0.00,0.00,0.00,0.00,0.00,0.00,543.49,543.41,0.00,0.00,0.00,0.00,0.00,0.00,542.61,543.70,543.68,542.00,540.59,540.94,541.70,540.26,539.12,539.87,540.34,539.91,538.07,540.01,540.13,540.10,537.54,536.10,534.60,532.62,532.14,531.13,532.27,530.29,528.60,523.26,515.41,501.02,0.00,0.00,0.00,0.00,0.00,0.00,0.00,0.00,0.00,0.00,0.00,0.00,0.00,0.00,0.00,0.00,0.00,0.00,0.00,0.00,0.00,0.00,0.00,0.00,0.00,0.00,0.00,0.00,0.00,0.00,0.00,0.00,0.00,0.00,0.00,0.00,0.00,0.00,0.00,0.00,0.00,0.00,0.00,0.00,0.00,0.00,0.00,0.00,0.00,0.00,0.00,0.00,0.00,0.00,0.00,0.00
0.00,0.00,0.00,0.00,0.00,0.00,0.00,0.00,0.00,0.00,0.00,0.00,0.00,0.00,0.00,0.00,0.00,0.00,0.00,0.00,0.00,0.00,0.00,0.00,0.00,0.00,0.00,0.00,0.00,0.00,0.00,0.00,0.00,0.00,0.00,0.00,0.00,0.00,0.00,0.00,0.00,0.00,0.00,0.00,0.00,0.00,0.00,0.00,0.00,0.00,0.00,1570.04,1584.58,1591.41,1603.47,1610.10,1617.12,1618.04,1621.86,1623.31,1624.00,1621.73,1620.80,1619.30,1619.05,1618.26,1618.37,1618.39,1619.95,1621.63,1621.86,1621.55,1622.04,1622.28,1622.14,1622.67,1623.40,1622.49,1622.64,1622.78,1624.70,1624.70,1625.63,1625.80,1626.04,1627.23,1628.36,1629.32,1629.47,1629.12,1628.96,1628.56,1629.86,1629.13,1629.28,1624.93,1622.47,1620.22,1623.00,1623.86,1624.04,1622.95,1627.75,0.00,0.00,0.00,1305.48,1306.57,1326.78,1340.31,1313.06,1343.27,0.00,0.00,0.00,1619.12,1629.73,1633.43,1634.34,1635.18,1636.04,1634.65,1633.92,1630.91,0.00,0.00,0.00,0.00,0.00,0.00,0.00,0.00,0.00,0.00,0.00,0.00,0.00,0.00,0.00,0.00,0.00,0.00,0.00,0.00,0.00,0.00,0.00,0.00,0.00,0.00,0.00,0.00,0.00,0.00,0.00,0.00,0.00,659.64,680.36,688.65,691.17,692.83,695.31,696.17,697.13,696.34,696.14,696.16,696.54,696.63,695.31,697.19,697.90,698.95,699.05,701.63,703.25,702.98,701.96,701.32,702.69,703.23,703.73,701.96,701.22,699.69,699.82,700.26,702.91,703.69,703.90,702.02,702.26,702.78,703.96,703.36,703.87,705.07,705.59,704.47,702.36,701.69,702.59,703.40,703.28,702.77,702.23,700.92,700.33,699.57,697.63,696.18,695.76,695.99,691.79,689.12,688.01,687.55,684.56,681.19,677.30,673.44,670.72,669.94,669.05,667.28,664.63,661.55,657.29,651.09,646.64,642.07,640.67,638.22,638.49,633.95,632.03,626.25,623.96,621.05,619.76,617.72,615.39,611.58,610.27,607.39,605.83,602.89,600.63,599.19,596.63,595.45,593.91,593.53,593.02,590.86,587.79,586.01,585.97,585.37,585.03,584.31,584.18,582.75,581.80,581.61,582.07,582.36,582.15,582.85,583.68,584.79,584.60,586.41,590.38,597.14,605.99,615.08,625.33,633.26,638.33,641.13,643.68,643.97,643.00,640.86,640.04,638.91,638.72,637.94,639.40,639.99,640.89,639.06,638.15,637.88,638.75,638.95,637.73,636.82,636.10,634.01,630.66,628.15,627.32,625.54,622.03,620.56,618.68,619.41,619.13,617.91,614.98,611.34,611.50,610.39,611.64,612.06,614.23,614.53,615.79,619.34,625.00,631.95,638.04,641.54,644.14,646.53,647.84,645.40,643.38,642.53,643.17,638.84,634.89,629.31,625.12,619.74,616.84,612.93,610.89,607.30,607.64,607.02,608.19,0.00,0.00,0.00,606.06,0.00,0.00,0.00,600.48,600.01,600.53,601.72,603.02,601.50,600.55,596.58,594.32,589.50,586.49,585.05,582.58,581.09,576.42,572.09,567.12,566.09,564.81,565.72,563.44,561.09,554.13,550.75,548.14,546.91,544.15,541.60,0.00,541.59,0.00,0.00,549.14,552.87,559.94,560.73,560.87,558.63,556.64,554.05,552.72,551.11,552.08,550.12,0.00,0.00,0.00,0.00,0.00,0.00,0.00,0.00,546.47,0.00,543.64,0.00,0.00,0.00,543.36,544.68,545.32,544.58,542.80,542.39,542.63,543.27,542.39,541.60,541.95,541.55,542.51,542.19,543.93,542.69,540.48,539.50,537.99,536.81,534.65,534.55,533.18,533.16,531.13,529.11,523.41,512.07,0.00,0.00,0.00,0.00,0.00,0.00,0.00,0.00,0.00,0.00,0.00,0.00,0.00,0.00,0.00,0.00,0.00,0.00,0.00,0.00,0.00,0.00,0.00,0.00,0.00,0.00,0.00,0.00,0.00,0.00,0.00,0.00,0.00,0.00,0.00,0.00,0.00,0.00,0.00,0.00,0.00,0.00,0.00,0.00,0.00,0.00,0.00,0.00,0.00,0.00,0.00,0.00,0.00,0.00,0.00,0.00,0.00
0.00,0.00,0.00,0.00,0.00,0.00,0.00,0.00,0.00,0.00,0.00,0.00,0.00,0.00,0.00,0.00,0.00,0.00,0.00,0.00,0.00,0.00,0.00,0.00,0.00,0.00,0.00,0.00,0.00,0.00,0.00,0.00,0.00,0.00,0.00,0.00,0.00,0.00,0.00,0.00,0.00,0.00,0.00,0.00,0.00,0.00,0.00,0.00,0.00,0.00,0.00,0.00,0.00,0.00,0.00,1596.42,1611.00,1616.90,1621.27,1622.55,1623.08,1620.36,1619.15,1617.02,1617.54,1616.69,1616.09,1615.03,1616.44,1618.71,1619.71,1619.49,1619.65,1620.15,1619.43,1620.85,1620.56,1621.43,1620.91,1621.43,1621.70,1621.81,1622.90,1623.40,1623.26,1624.49,1625.94,1626.92,1626.21,1625.94,1626.05,1626.83,1627.30,1627.00,1626.05,1622.79,1619.87,1618.14,1620.01,1621.12,1621.19,1620.41,1619.77,0.00,0.00,0.00,1315.23,1303.90,1313.66,1338.19,1313.39,1340.89,0.00,1349.84,0.00,1610.56,1623.84,1629.48,1630.56,1631.62,1630.76,1629.91,1629.30,1627.75,0.00,0.00,0.00,0.00,0.00,0.00,0.00,0.00,0.00,0.00,0.00,0.00,0.00,0.00,0.00,0.00,0.00,0.00,0.00,0.00,0.00,0.00,0.00,0.00,0.00,0.00,0.00,0.00,0.00,0.00,0.00,0.00,0.00,636.53,666.94,683.85,686.36,688.47,689.98,691.08,691.52,692.16,693.52,694.51,694.27,693.40,692.76,695.62,697.12,697.61,697.54,699.31,701.17,700.29,698.91,697.99,699.25,700.09,700.99,699.70,699.45,699.21,699.40,700.45,700.92,701.39,700.03,699.90,699.87,700.87,700.92,702.23,702.33,702.96,701.65,701.79,699.97,700.36,700.46,701.71,700.91,700.28,700.02,700.09,698.98,697.47,695.09,694.90,694.60,694.91,691.90,690.08,688.51,686.90,682.62,680.32,675.57,673.04,668.90,668.64,666.24,664.35,661.77,659.55,654.74,648.59,644.66,640.81,639.22,637.45,636.61,633.51,630.24,626.44,622.78,620.11,618.75,617.28,614.84,610.29,607.63,604.37,602.43,600.62,597.59,596.94,593.33,593.24,589.91,589.90,588.71,587.70,585.36,582.78,582.06,580.37,580.20,580.12,579.98,579.24,577.73,576.63,574.97,575.85,575.80,575.69,574.03,574.97,574.90,575.93,576.36,580.18,584.43,591.71,599.43,608.61,616.94,625.49,632.15,637.35,638.57,638.26,636.46,637.43,637.28,636.31,635.16,635.05,635.59,634.88,0.00,634.28,634.97,634.62,633.27,632.63,631.27,629.30,626.49,625.13,625.54,623.12,620.10,617.53,617.03,617.20,616.40,614.21,610.53,608.28,609.40,609.76,609.52,607.56,608.61,608.95,610.13,611.11,613.21,618.05,621.83,624.83,625.03,629.18,632.32,633.19,632.57,633.14,633.36,628.86,621.94,616.73,613.45,611.64,609.32,607.26,606.67,604.54,604.31,603.93,604.36,0.00,0.00,0.00,600.77,0.00,0.00,599.10,598.24,598.21,597.36,598.75,599.45,598.75,597.35,594.40,592.21,587.86,584.23,582.76,580.48,579.01,572.78,567.76,0.00,564.07,564.39,563.98,560.50,554.84,548.71,546.74,546.09,544.77,0.00,541.33,0.00,0.00,0.00,0.00,550.98,555.47,561.77,562.94,563.98,562.08,560.10,559.22,0.00,0.00,0.00,552.36,550.73,0.00,0.00,0.00,0.00,0.00,0.00,0.00,544.68,544.90,545.53,0.00,0.00,0.00,542.81,544.47,543.93,542.28,539.81,540.74,540.93,541.93,540.59,539.70,538.91,539.83,541.07,541.77,542.43,541.31,538.92,537.60,535.67,534.98,533.89,535.94,534.08,534.45,530.11,527.46,518.58,505.40,0.00,0.00,0.00,0.00,0.00,0.00,0.00,0.00,0.00,0.00,0.00,0.00,0.00,0.00,0.00,0.00,0.00,0.00,0.00,0.00,0.00,0.00,0.00,0.00,0.00,0.00,0.00,0.00,0.00,0.00,0.00,0.00,0.00,0.00,0.00,0.00,0.00,0.00,0.00,0.00,0.00,0.00,0.00,0.00,0.00,0.00,0.00,0.00,0.00,0.00,0.00,0.00,0.00,0.00,0.00,0.00,0.00
0.00,0.00,0.00,0.00,0.00,0.00,0.00,0.00,0.00,0.00,0.00,0.00,0.00,0.00,0.00,0.00,0.00,0.00,0.00,0.00,0.00,0.00,0.00,0.00,0.00,0.00,0.00,0.00,0.00,0.00,0.00,0.00,0.00,0.00,0.00,0.00,0.00,0.00,0.00,0.00,0.00,0.00,0.00,0.00,0.00,0.00,0.00,0.00,0.00,0.00,0.00,0.00,0.00,0.00,0.00,0.00,1606.40,1615.90,1621.42,1622.57,1623.59,1621.63,1620.18,1617.35,1618.71,1617.21,1617.61,1615.64,1618.45,1619.29,1620.27,1618.82,1618.90,1619.38,1618.91,1620.08,1619.97,1621.35,1621.60,1621.30,1621.12,1621.14,1622.77,1623.46,1623.57,1624.95,1626.17,1627.53,1627.58,1627.51,1627.85,1627.71,1627.98,1627.87,1627.14,1623.77,1619.35,1618.33,1620.14,1621.54,1621.88,1621.76,1623.11,0.00,0.00,0.00,0.00,1301.14,1309.38,1343.87,1334.35,1344.80,0.00,1351.59,1345.74,1598.05,1622.97,1629.66,1631.61,1632.94,1632.50,1631.15,1629.93,1629.37,1628.46,0.00,0.00,0.00,0.00,0.00,0.00,0.00,0.00,0.00,0.00,0.00,0.00,0.00,0.00,0.00,0.00,0.00,0.00,0.00,0.00,0.00,0.00,0.00,0.00,0.00,0.00,0.00,0.00,0.00,0.00,0.00,0.00,0.00,655.35,676.78,685.20,687.84,689.40,689.44,690.76,692.22,694.24,693.80,693.20,692.89,693.81,695.68,697.31,696.84,697.95,699.38,701.87,700.97,699.99,699.63,701.04,701.51,702.14,701.78,702.22,702.34,702.73,703.96,703.54,703.03,702.51,703.11,703.21,701.87,702.38,703.35,704.07,704.30,703.93,705.95,704.33,704.31,703.02,703.77,703.63,703.37,703.97,702.73,700.82,697.61,695.75,696.29,696.55,695.94,693.17,691.34,690.54,687.06,683.76,680.45,676.69,673.24,670.61,669.47,666.67,663.62,662.55,660.28,657.00,650.35,646.54,641.38,640.84,639.42,638.67,634.09,630.81,628.67,626.63,623.37,620.93,618.30,615.75,611.44,609.04,606.25,604.17,601.29,598.84,597.50,593.65,593.31,590.65,590.30,588.14,588.43,586.38,584.34,582.72,581.56,581.10,581.00,582.02,580.71,578.42,575.32,573.48,573.30,572.83,572.44,570.49,571.60,571.36,572.98,573.96,575.95,575.83,576.48,579.47,583.77,588.21,596.12,606.04,617.08,625.93,631.09,633.30,637.05,638.45,636.95,634.97,633.28,634.30,633.44,634.58,634.30,635.73,635.12,634.73,633.58,632.56,630.55,628.22,626.20,626.83,624.19,622.21,619.15,619.08,619.03,617.39,615.66,611.42,610.53,611.09,612.02,609.63,605.06,604.70,605.00,606.65,606.27,606.63,608.13,608.57,607.84,608.16,612.54,617.88,622.02,624.35,625.60,622.96,617.45,612.18,610.11,608.57,607.68,606.80,606.64,607.61,604.64,603.93,603.50,603.86,602.27,601.29,602.92,602.95,601.31,599.32,598.43,597.16,597.20,596.86,597.22,598.11,598.31,598.97,596.98,594.97,590.58,587.31,585.26,582.17,579.47,573.88,570.97,569.10,568.22,566.63,563.32,559.56,552.76,547.74,0.00,546.61,0.00,0.00,543.31,0.00,0.00,546.10,549.54,556.67,560.44,563.94,0.00,0.00,565.43,563.92,565.09,0.00,560.34,0.00,556.37,0.00,0.00,544.10,0.00,0.00,0.00,0.00,0.00,546.20,0.00,0.00,0.00,0.00,546.26,545.68,546.98,545.06,543.52,541.33,543.19,543.12,542.48,541.24,540.98,541.05,542.32,543.44,544.11,544.26,542.16,539.95,537.81,536.57,535.05,535.06,536.94,535.69,534.17,529.61,526.34,517.73,504.71,0.00,0.00,0.00,0.00,0.00,0.00,0.00,0.00,0.00,0.00,0.00,0.00,0.00,0.00,0.00,0.00,0.00,0.00,0.00,0.00,0.00,0.00,0.00,0.00,0.00,0.00,0.00,0.00,0.00,0.00,0.00,0.00,0.00,0.00,0.00,0.00,0.00,0.00,0.00,0.00,0.00,0.00,0.00,0.00,0.00,0.00,0.00,0.00,0.00,0.00,0.00,0.00,0.00,0.00,0.00,0.00,0.00
0.00,0.00,0.00,0.00,0.00,0.00,0.00,0.00,0.00,0.00,0.00,0.00,0.00,0.00,0.00,0.00,0.00,0.00,0.00,0.00,0.00,0.00,0.00,0.00,0.00,0.00,0.00,0.00,0.00,0.00,0.00,0.00,0.00,0.00,0.00,0.00,0.00,0.00,0.00,0.00,0.00,0.00,0.00,0.00,0.00,0.00,0.00,0.00,0.00,0.00,0.00,0.00,0.00,0.00,0.00,0.00,1599.69,1612.09,1618.16,1620.46,1619.25,1616.80,1614.88,1614.41,1615.64,1614.82,1614.05,1613.37,1615.15,1616.37,1617.08,1617.20,1617.18,1617.43,1615.89,1616.66,1616.54,1618.43,1618.74,1619.12,1618.53,1618.34,1619.41,1621.31,1622.00,1622.91,1622.73,1625.32,1625.73,1627.07,1626.37,1626.34,1625.78,1626.23,1625.54,1622.43,1617.26,1617.30,1618.82,1620.01,1620.03,1620.53,1623.52,0.00,0.00,0.00,0.00,1294.51,1306.77,1342.08,1339.77,1339.72,0.00,0.00,1323.69,0.00,1617.28,1625.55,1628.54,1629.43,1629.92,1629.82,1628.49,0.00,0.00,0.00,0.00,0.00,0.00,0.00,0.00,0.00,0.00,0.00,0.00,0.00,0.00,0.00,0.00,0.00,0.00,0.00,0.00,0.00,0.00,0.00,0.00,0.00,0.00,0.00,0.00,0.00,0.00,0.00,0.00,0.00,0.00,0.00,627.94,662.81,679.42,683.94,686.05,686.86,687.34,688.64,691.30,692.27,692.45,692.03,693.49,693.99,694.62,694.49,694.52,695.72,696.68,696.92,696.46,697.20,698.63,700.19,700.05,700.16,699.47,700.50,700.23,701.14,699.26,700.05,699.95,701.88,701.00,700.83,700.92,702.00,701.35,701.55,701.96,704.90,704.01,703.85,701.97,702.28,700.14,700.15,701.23,700.98,698.51,695.59,694.54,694.26,693.75,693.96,693.43,691.55,689.36,685.39,681.73,678.80,675.58,673.71,670.65,668.63,665.44,661.99,658.82,654.94,652.38,648.10,644.67,639.78,638.65,636.92,635.03,632.18,629.50,628.26,625.21,622.40,618.83,614.88,612.99,609.99,608.37,605.04,602.79,599.68,596.60,595.54,592.63,590.57,587.79,587.42,586.47,586.77,583.90,580.82,577.46,576.55,576.73,577.28,577.43,576.83,574.81,0.00,568.19,0.00,0.00,0.00,0.00,0.00,0.00,0.00,568.63,0.00,0.00,0.00,0.00,570.75,571.51,574.00,580.66,588.59,597.66,606.06,614.24,624.39,631.11,632.41,630.56,630.34,631.84,632.36,631.90,630.10,629.50,629.12,629.96,629.73,628.07,627.42,625.93,624.72,623.19,621.12,620.64,617.77,616.93,615.27,614.01,612.85,609.51,608.78,0.00,0.00,604.20,0.00,0.00,600.95,602.62,602.05,602.09,601.55,599.35,597.63,596.93,600.24,603.70,607.91,609.47,610.46,608.53,605.99,601.64,601.77,600.78,601.95,600.60,600.20,600.89,598.85,600.02,599.79,600.35,0.00,599.86,600.33,598.22,596.93,595.35,0.00,592.57,0.00,593.89,594.90,594.71,595.40,595.97,594.91,592.20,589.83,585.91,582.70,578.16,576.06,573.60,573.84,571.82,569.27,563.55,559.24,554.47,0.00,0.00,0.00,0.00,0.00,0.00,0.00,0.00,0.00,550.04,555.18,559.94,561.65,561.78,0.00,0.00,0.00,0.00,568.40,565.08,561.68,0.00,0.00,554.53,0.00,0.00,0.00,0.00,0.00,0.00,0.00,0.00,0.00,0.00,546.68,546.07,0.00,543.23,544.28,542.53,541.25,539.47,541.36,542.10,541.56,539.28,538.92,539.41,541.64,542.00,541.12,539.41,536.77,535.88,535.45,534.77,533.36,533.06,534.57,533.16,532.29,527.52,524.21,515.83,503.90,0.00,0.00,0.00,0.00,0.00,0.00,0.00,0.00,0.00,0.00,0.00,0.00,0.00,0.00,0.00,0.00,0.00,0.00,0.00,0.00,0.00,0.00,0.00,0.00,0.00,0.00,0.00,0.00,0.00,0.00,0.00,0.00,0.00,0.00,0.00,0.00,0.00,0.00,0.00,0.00,0.00,0.00,0.00,0.00,0.00,0.00,0.00,0.00,0.00,0.00,0.00,0.00,0.00,0.00,0.00,0.00,0.00
0.00,0.00,0.00,0.00,0.00,0.00,0.00,0.00,0.00,0.00,0.00,0.00,0.00,0.00,0.00,0.00,0.00,0.00,0.00,0.00,0.00,0.00,0.00,0.00,0.00,0.00,0.00,0.00,0.00,0.00,0.00,0.00,0.00,0.00,0.00,0.00,0.00,0.00,0.00,0.00,0.00,0.00,0.00,0.00,0.00,0.00,0.00,0.00,0.00,0.00,0.00,0.00,0.00,0.00,0.00,0.00,1596.53,1607.78,1616.42,1619.35,1618.38,1616.70,1615.43,1614.25,1614.51,1613.43,1614.17,1614.73,1616.47,1617.27,1617.60,1617.60,1617.98,1617.80,1617.12,1617.58,1617.02,1617.63,1616.79,1617.92,1618.65,1619.91,1621.22,1622.54,1622.93,1622.87,1622.12,1624.37,1625.61,1627.31,1626.79,1626.61,1626.65,1627.10,1625.95,1622.07,1617.37,1618.61,1621.13,1622.37,1622.24,1622.19,1625.46,0.00,0.00,0.00,0.00,1297.32,1311.35,0.00,0.00,1329.32,1363.06,0.00,1331.96,0.00,1612.25,1623.64,1628.45,1629.61,1631.26,1630.80,1630.15,1630.05,0.00,0.00,0.00,0.00,0.00,0.00,0.00,0.00,0.00,0.00,0.00,0.00,0.00,0.00,0.00,0.00,0.00,0.00,0.00,0.00,0.00,0.00,0.00,0.00,0.00,0.00,0.00,0.00,0.00,0.00,0.00,0.00,0.00,0.00,0.00,651.12,675.33,685.04,688.48,688.75,688.21,688.51,690.70,692.23,692.83,693.51,695.45,695.07,694.71,694.25,695.05,695.53,696.35,697.20,697.94,698.94,700.51,701.45,700.47,700.08,699.87,700.48,699.77,699.84,699.58,700.96,702.07,703.54,703.45,702.99,703.82,703.31,703.22,703.06,705.89,708.01,707.45,705.38,702.63,702.03,700.70,701.41,702.55,700.93,699.02,695.96,696.15,694.77,694.23,694.54,694.03,692.24,689.44,685.56,682.06,677.55,675.10,673.49,671.64,668.53,664.56,661.69,658.45,654.57,652.33,649.53,647.24,642.45,640.20,636.45,634.55,632.27,630.09,627.65,625.28,623.31,619.81,616.31,614.55,612.40,610.51,607.51,605.50,600.97,597.64,594.98,592.80,590.05,589.88,589.47,587.78,586.24,585.18,583.79,580.68,578.42,577.84,577.54,577.80,577.38,576.10,0.00,570.33,570.15,0.00,571.17,0.00,0.00,571.90,0.00,0.00,572.79,0.00,570.02,0.00,569.10,567.16,567.12,570.81,575.96,581.52,585.16,591.63,600.12,611.53,619.65,624.95,628.55,630.84,631.45,630.90,629.25,628.50,628.22,629.92,629.57,0.00,628.64,0.00,626.11,623.54,621.63,621.12,618.53,617.36,615.55,615.77,614.42,611.94,0.00,606.62,606.42,0.00,0.00,0.00,0.00,0.00,0.00,602.40,601.04,597.79,595.22,595.23,597.86,601.17,603.17,603.88,603.01,602.83,601.35,599.97,599.09,598.85,598.44,598.54,598.91,599.82,596.89,597.68,597.76,600.37,599.69,599.72,599.82,598.90,597.69,596.14,594.79,0.00,593.94,0.00,594.20,594.88,596.02,598.05,595.26,591.55,588.69,586.23,582.36,579.28,577.41,577.79,577.74,572.99,568.28,562.20,558.30,0.00,0.00,546.75,544.38,542.94,0.00,0.00,0.00,0.00,548.15,556.11,562.93,566.24,566.26,0.00,0.00,0.00,0.00,0.00,569.45,0.00,564.39,562.09,561.69,559.57,557.40,554.85,553.06,551.20,551.09,0.00,545.87,544.57,547.10,0.00,0.00,545.57,0.00,544.86,545.84,544.66,543.68,541.48,541.89,542.42,542.45,542.08,541.50,542.77,543.83,544.22,542.67,541.34,537.81,536.24,535.05,535.60,535.22,535.84,534.89,533.77,531.18,527.60,523.53,517.13,505.52,0.00,0.00,0.00,0.00,0.00,0.00,0.00,0.00,0.00,0.00,0.00,0.00,0.00,0.00,0.00,0.00,0.00,0.00,0.00,0.00,0.00,0.00,0.00,0.00,0.00,0.00,0.00,0.00,0.00,0.00,0.00,0.00,0.00,0.00,0.00,0.00,0.00,0.00,0.00,0.00,0.00,0.00,0.00,0.00,0.00,0.00,0.00,0.00,0.00,0.00,0.00,0.00,0.00,0.00,0.00,0.00,0.00
0.00,0.00,0.00,0.00,0.00,0.00,0.00,0.00,0.00,0.00,0.00,0.00,0.00,0.00,0.00,0.00,0.00,0.00,0.00,0.00,0.00,0.00,0.00,0.00,0.00,0.00,0.00,0.00,0.00,0.00,0.00,0.00,0.00,0.00,0.00,0.00,0.00,0.00,0.00,0.00,0.00,0.00,0.00,0.00,0.00,0.00,0.00,0.00,0.00,0.00,0.00,0.00,0.00,0.00,0.00,0.00,1590.15,1602.95,1614.63,1616.81,1615.07,1613.47,1612.51,1612.04,1611.73,1610.98,1612.35,1613.36,1613.16,1613.17,1613.91,1615.33,1615.86,1614.63,1615.20,1615.71,1615.66,1615.71,1614.55,1616.96,1617.14,1618.76,1618.54,1620.20,1620.30,1620.50,1619.29,1621.25,1622.19,1623.92,1623.51,1624.51,1623.70,1624.45,1621.32,1618.75,1616.40,1618.16,1620.31,1620.38,1620.37,1619.36,1620.31,0.00,0.00,0.00,0.00,1303.55,1312.63,0.00,0.00,1316.94,1340.65,0.00,1358.49,0.00,1601.56,1618.77,1626.11,1628.49,1628.63,1627.09,1625.89,0.00,0.00,0.00,0.00,0.00,0.00,0.00,0.00,0.00,0.00,0.00,0.00,0.00,0.00,0.00,0.00,0.00,0.00,0.00,0.00,0.00,0.00,0.00,0.00,0.00,0.00,0.00,0.00,0.00,0.00,0.00,0.00,0.00,0.00,0.00,0.00,0.00,666.45,680.03,685.28,685.40,685.20,685.19,687.06,689.07,689.56,690.08,691.37,692.72,692.92,693.00,692.94,692.94,693.32,694.57,695.84,696.35,696.60,696.71,695.61,696.27,695.61,696.74,695.50,697.40,697.32,698.54,697.52,699.06,698.48,0.00,700.17,701.09,700.42,700.67,702.82,705.02,705.56,704.34,700.67,699.92,697.07,697.97,698.05,698.28,696.53,693.51,692.72,692.01,691.49,692.54,692.20,691.15,686.89,682.86,678.95,675.99,674.46,673.63,671.31,668.30,663.70,660.29,656.01,651.38,649.43,647.94,647.22,641.63,637.44,633.27,632.38,630.49,628.03,625.28,622.67,621.19,617.70,615.40,613.45,612.57,609.08,606.14,603.34,600.27,596.92,594.68,593.11,590.72,589.03,587.72,585.43,583.97,583.75,581.89,579.73,0.00,0.00,0.00,574.67,574.62,573.09,0.00,0.00,570.23,569.17,568.43,567.36,569.10,567.90,568.40,567.64,567.83,566.75,566.86,566.57,565.81,565.43,565.32,567.31,569.31,572.20,573.28,576.40,580.79,588.22,596.90,606.66,616.94,622.46,626.99,626.77,0.00,625.00,625.32,624.56,625.24,623.96,624.83,623.65,623.46,621.43,619.36,618.09,615.44,613.63,611.99,612.65,611.83,609.66,0.00,0.00,604.74,0.00,0.00,0.00,599.29,600.11,600.15,600.47,598.60,595.57,593.54,593.56,593.85,595.33,595.69,595.73,595.21,595.10,595.41,593.59,593.54,593.71,594.15,593.15,593.78,593.88,593.34,592.95,593.30,0.00,594.31,594.08,594.84,594.36,594.03,592.92,592.83,592.68,593.14,592.63,592.05,592.28,594.22,594.54,592.39,587.71,584.46,581.67,579.37,578.55,579.07,578.73,574.92,566.58,563.64,558.79,555.82,550.51,547.74,0.00,544.04,542.03,0.00,0.00,0.00,544.36,550.59,560.31,567.90,567.68,566.79,0.00,0.00,0.00,0.00,0.00,0.00,0.00,0.00,0.00,563.84,0.00,559.34,556.58,0.00,0.00,0.00,550.07,0.00,0.00,0.00,544.42,543.62,542.32,543.16,542.24,543.00,542.92,542.54,541.48,541.01,541.63,542.19,541.98,540.84,542.59,543.35,544.57,541.15,539.83,537.69,536.33,534.83,534.00,534.34,534.20,532.87,532.28,531.40,528.92,522.76,513.45,501.27,0.00,0.00,0.00,0.00,0.00,0.00,0.00,0.00,0.00,0.00,0.00,0.00,0.00,0.00,0.00,0.00,0.00,0.00,0.00,0.00,0.00,0.00,0.00,0.00,0.00,0.00,0.00,0.00,0.00,0.00,0.00,0.00,0.00,0.00,0.00,0.00,0.00,0.00,0.00,0.00,0.00,0.00,0.00,0.00,0.00,0.00,0.00,0.00,0.00,0.00,0.00,0.00,0.00,0.00,0.00,0.00,0.00
0.00,0.00,0.00,0.00,0.00,0.00,0.00,0.00,0.00,0.00,0.00,0.00,0.00,0.00,0.00,0.00,0.00,0.00,0.00,0.00,0.00,0.00,0.00,0.00,0.00,0.00,0.00,0.00,0.00,0.00,0.00,0.00,0.00,0.00,0.00,0.00,0.00,0.00,0.00,0.00,0.00,0.00,0.00,0.00,0.00,0.00,0.00,0.00,0.00,0.00,0.00,0.00,0.00,0.00,0.00,1564.92,1590.20,1603.73,1615.94,1617.84,1616.39,1615.46,1613.79,1612.67,1611.85,1610.79,1613.28,1614.24,1614.25,1612.79,1613.65,1615.01,1616.75,1616.12,1616.84,1616.64,1615.94,1616.00,1614.96,1616.83,1617.33,1618.52,1618.97,1620.35,1620.75,1620.28,1619.82,1620.88,1622.42,1623.32,1624.40,1625.41,1624.29,1623.91,1619.75,1617.88,1616.98,1618.36,1620.17,1619.61,1620.99,1620.47,1621.72,1624.91,0.00,0.00,0.00,1317.54,1319.54,1341.88,0.00,1321.46,1341.06,0.00,0.00,1353.17,0.00,1614.59,1623.79,1627.01,1627.08,1625.20,0.00,0.00,0.00,0.00,0.00,0.00,0.00,0.00,0.00,0.00,0.00,0.00,0.00,0.00,0.00,0.00,0.00,0.00,0.00,0.00,0.00,0.00,0.00,0.00,0.00,0.00,0.00,0.00,0.00,0.00,0.00,0.00,0.00,0.00,0.00,0.00,0.00,0.00,656.78,674.14,684.93,684.72,685.92,685.38,687.04,688.18,688.71,689.57,690.77,692.37,693.77,693.65,694.78,694.33,694.94,695.39,696.32,696.93,697.51,696.87,696.23,696.38,697.38,697.68,697.67,699.85,700.66,700.06,699.18,700.17,701.13,702.06,702.34,702.43,702.51,702.08,703.64,705.06,706.16,704.85,702.04,701.39,700.08,700.05,700.55,701.34,700.25,695.79,693.92,693.34,693.88,693.16,691.47,689.90,686.44,682.65,679.60,675.90,674.97,672.47,671.64,667.85,663.26,659.36,656.30,652.80,651.03,648.38,647.09,641.11,636.77,633.59,633.50,631.02,627.87,625.42,624.63,623.76,621.11,619.21,616.79,614.68,610.43,607.92,605.11,602.20,600.36,597.81,595.35,593.38,593.42,591.70,587.88,585.57,586.77,584.16,582.77,0.00,579.82,578.73,578.30,576.26,574.63,574.17,574.08,572.25,568.76,566.35,565.23,567.09,566.89,567.26,567.09,567.13,567.23,565.61,564.91,564.48,565.30,566.59,567.67,570.75,572.00,571.86,572.29,573.51,576.80,582.17,591.21,602.26,612.06,620.22,624.49,626.88,626.70,626.60,625.07,625.45,625.36,626.21,624.59,624.55,623.42,621.89,619.51,617.53,615.92,614.06,613.32,611.49,0.00,0.00,0.00,606.35,0.00,0.00,601.91,600.43,600.63,0.00,0.00,598.64,596.49,593.70,593.94,593.31,595.01,594.81,595.51,594.21,594.59,593.89,592.53,592.02,593.55,593.92,593.70,595.17,595.74,595.62,593.19,592.36,592.86,0.00,593.40,0.00,596.27,0.00,0.00,0.00,0.00,0.00,0.00,590.73,591.23,594.48,595.15,592.94,587.81,582.82,580.92,580.77,582.44,582.04,578.17,570.58,564.57,562.50,559.84,555.56,551.01,548.06,0.00,0.00,0.00,0.00,0.00,0.00,544.69,552.09,562.64,569.47,570.38,570.52,0.00,569.06,566.53,0.00,0.00,0.00,0.00,0.00,570.12,567.06,565.98,0.00,0.00,0.00,0.00,0.00,0.00,0.00,0.00,0.00,0.00,546.42,545.93,547.31,546.90,546.94,545.59,545.07,544.33,544.01,543.72,543.59,544.58,544.64,547.40,547.43,548.35,544.93,544.22,541.85,539.78,537.34,536.32,536.71,536.94,535.57,535.69,534.48,532.96,526.63,517.56,505.18,0.00,0.00,0.00,0.00,0.00,0.00,0.00,0.00,0.00,0.00,0.00,0.00,0.00,0.00,0.00,0.00,0.00,0.00,0.00,0.00,0.00,0.00,0.00,0.00,0.00,0.00,0.00,0.00,0.00,0.00,0.00,0.00,0.00,0.00,0.00,0.00,0.00,0.00,0.00,0.00,0.00,0.00,0.00,0.00,0.00,0.00,0.00,0.00,0.00,0.00,0.00,0.00,0.00,0.00,0.00,0.00,0.00
0.00,0.00,0.00,0.00,0.00,0.00,0.00,0.00,0.00,0.00,0.00,0.00,0.00,0.00,0.00,0.00,0.00,0.00,0.00,0.00,0.00,0.00,0.00,0.00,0.00,0.00,0.00,0.00,0.00,0.00,0.00,0.00,0.00,0.00,0.00,0.00,0.00,0.00,0.00,0.00,0.00,0.00,0.00,0.00,0.00,0.00,0.00,0.00,0.00,0.00,0.00,0.00,0.00,0.00,0.00,1565.70,1589.46,1602.12,1613.97,1615.42,1613.35,1613.26,1610.63,1610.22,1609.35,1609.34,1610.67,1611.08,1610.62,1609.36,1609.61,1611.46,1613.04,1613.18,1613.44,1612.67,1613.62,1613.86,1614.40,1614.97,1615.16,1615.48,1615.12,1616.43,1617.46,1617.76,1618.01,1618.79,1620.17,1620.83,1621.90,1622.57,1620.91,1620.31,1616.98,1615.86,1615.08,1615.57,1616.56,1616.99,1619.22,1619.17,1619.35,1618.91,0.00,0.00,0.00,1329.12,1319.62,1332.72,0.00,1326.30,1338.79,0.00,0.00,1340.43,0.00,1603.46,1618.32,1622.04,0.00,0.00,0.00,0.00,0.00,0.00,0.00,0.00,0.00,0.00,0.00,0.00,0.00,0.00,0.00,0.00,0.00,0.00,0.00,0.00,0.00,0.00,0.00,0.00,0.00,0.00,0.00,0.00,0.00,0.00,0.00,0.00,0.00,0.00,0.00,0.00,0.00,0.00,0.00,0.00,0.00,663.28,678.09,680.72,682.98,682.78,684.22,685.08,686.42,687.15,687.39,688.37,689.55,690.12,691.53,691.89,692.35,692.14,692.35,693.67,694.51,694.42,692.99,693.46,694.05,695.92,695.66,698.89,698.00,697.37,695.37,696.48,696.38,697.99,698.61,699.55,698.13,697.38,698.22,700.13,701.08,701.57,700.61,700.95,698.91,698.85,699.52,701.28,700.02,695.50,692.27,691.50,692.21,692.27,690.06,687.48,684.94,681.89,678.48,673.83,671.73,670.14,669.47,666.75,662.09,657.87,654.01,651.03,648.88,647.22,644.22,639.36,634.86,633.58,632.55,628.87,624.13,622.28,622.73,622.98,620.48,618.59,616.22,614.83,609.25,606.95,602.90,601.81,599.43,597.24,594.76,593.61,593.10,591.27,587.81,586.03,586.01,582.57,0.00,577.80,0.00,578.49,577.73,575.72,0.00,572.14,571.14,569.58,566.74,564.29,562.85,0.00,564.67,563.90,563.48,562.71,562.74,560.60,0.00,558.13,560.48,562.43,563.68,565.00,565.19,566.05,565.77,567.28,567.87,572.38,577.91,586.81,595.80,605.62,613.91,619.27,621.91,0.00,0.00,623.62,622.09,623.38,621.46,622.24,620.75,619.88,617.75,617.12,614.89,0.00,609.78,608.05,0.00,0.00,0.00,0.00,0.00,0.00,0.00,0.00,0.00,0.00,0.00,596.30,0.00,592.06,0.00,0.00,591.97,592.07,591.00,590.17,0.00,0.00,0.00,0.00,588.28,590.92,590.65,591.58,589.93,590.51,589.03,589.83,0.00,0.00,0.00,0.00,0.00,0.00,0.00,0.00,0.00,0.00,0.00,0.00,588.43,591.33,590.79,590.03,0.00,0.00,0.00,582.39,581.91,580.46,574.21,568.15,562.88,560.09,555.63,0.00,547.30,0.00,0.00,0.00,0.00,0.00,0.00,0.00,0.00,551.65,561.86,567.42,567.94,568.51,569.81,0.00,0.00,0.00,0.00,0.00,0.00,0.00,0.00,569.20,566.33,0.00,0.00,0.00,0.00,0.00,0.00,0.00,0.00,0.00,0.00,545.73,545.67,546.94,546.17,546.07,544.36,543.46,543.64,544.19,544.46,543.56,544.36,544.95,548.16,547.20,547.63,543.64,541.95,538.62,537.77,537.61,537.31,536.47,535.18,534.73,534.22,532.56,530.08,524.36,516.78,505.85,0.00,0.00,0.00,0.00,0.00,0.00,0.00,0.00,0.00,0.00,0.00,0.00,0.00,0.00,0.00,0.00,0.00,0.00,0.00,0.00,0.00,0.00,0.00,0.00,0.00,0.00,0.00,0.00,0.00,0.00,0.00,0.00,0.00,0.00,0.00,0.00,0.00,0.00,0.00,0.00,0.00,0.00,0.00,0.00,0.00,0.00,0.00,0.00,0.00,0.00,0.00,0.00,0.00,0.00,0.00,0.00,0.00
0.00,0.00,0.00,0.00,0.00,0.00,0.00,0.00,0.00,0.00,0.00,0.00,0.00,0.00,0.00,0.00,0.00,0.00,0.00,0.00,0.00,0.00,0.00,0.00,0.00,0.00,0.00,0.00,0.00,0.00,0.00,0.00,0.00,0.00,0.00,0.00,0.00,0.00,0.00,0.00,0.00,0.00,0.00,0.00,0.00,0.00,0.00,0.00,0.00,0.00,0.00,0.00,0.00,0.00,0.00,1563.85,1587.90,1601.43,1612.32,1614.31,1611.92,1612.56,1610.25,1610.74,1609.68,1609.92,1611.27,1611.32,1611.05,1608.74,1608.62,1610.60,1613.21,1614.58,1613.38,1612.59,1613.68,1614.91,1616.02,1615.72,1616.89,1617.40,1617.45,1617.57,1618.72,1618.29,1619.03,1618.36,1620.00,1620.36,1622.35,1622.91,1622.28,1621.41,1618.66,1616.37,1615.14,1616.08,1617.33,1617.43,1619.26,1619.44,1621.12,1622.20,0.00,0.00,0.00,0.00,1314.75,1323.78,0.00,1340.59,1342.31,0.00,0.00,1354.91,0.00,0.00,0.00,0.00,0.00,0.00,0.00,0.00,0.00,0.00,0.00,0.00,0.00,0.00,634.62,649.54,654.48,653.60,653.34,650.44,649.02,646.92,638.24,613.34,0.00,0.00,0.00,0.00,0.00,0.00,0.00,0.00,0.00,0.00,0.00,0.00,0.00,0.00,0.00,0.00,0.00,0.00,0.00,0.00,0.00,648.57,672.26,679.78,683.38,683.04,685.70,686.11,687.89,687.92,688.51,689.25,690.59,690.78,691.78,691.80,692.30,691.64,691.86,693.20,695.01,695.71,694.56,694.63,695.22,696.60,698.05,699.97,699.88,698.58,697.59,698.34,698.02,698.54,699.16,699.72,699.20,698.59,699.37,699.19,699.30,700.14,701.50,701.44,700.04,699.86,701.08,700.78,700.14,696.65,694.54,693.06,693.35,692.60,690.19,687.09,686.15,683.46,680.82,674.80,672.03,669.25,668.46,665.83,662.18,658.87,654.70,651.54,647.84,646.48,643.73,639.55,635.67,633.34,632.46,628.81,625.88,624.13,624.89,624.77,622.25,620.37,618.44,616.98,611.89,608.70,605.76,604.24,602.39,600.34,598.65,597.01,596.57,593.04,590.18,588.03,588.52,585.02,582.92,580.81,582.32,582.57,580.66,577.80,574.47,573.16,571.60,570.35,568.12,564.92,563.50,0.00,566.75,564.11,564.50,564.11,0.00,562.46,0.00,560.49,560.15,561.83,562.62,564.03,563.56,564.48,564.55,565.31,565.27,567.33,570.21,574.51,581.42,590.39,602.03,610.07,617.68,620.92,623.63,623.86,623.28,623.79,622.60,622.68,620.70,620.06,618.73,619.05,617.81,0.00,0.00,610.07,0.00,0.00,0.00,0.00,0.00,0.00,0.00,0.00,600.18,0.00,0.00,0.00,0.00,593.75,0.00,0.00,0.00,0.00,0.00,0.00,0.00,0.00,0.00,0.00,587.61,589.23,591.13,0.00,588.73,588.30,588.43,589.80,0.00,0.00,0.00,0.00,0.00,0.00,0.00,0.00,0.00,0.00,0.00,0.00,0.00,590.66,590.67,0.00,0.00,0.00,0.00,586.50,583.55,578.98,574.69,569.48,565.22,559.05,553.41,547.60,545.47,0.00,0.00,0.00,0.00,0.00,0.00,0.00,543.74,551.51,562.16,568.48,570.55,570.29,571.16,0.00,571.74,0.00,0.00,0.00,0.00,0.00,0.00,0.00,571.35,567.83,0.00,0.00,560.62,557.25,557.09,0.00,0.00,0.00,550.70,549.62,549.23,549.86,549.43,548.68,546.69,545.35,545.41,544.83,545.07,544.88,546.36,548.14,550.02,549.24,547.35,545.53,542.88,540.16,538.23,539.30,539.85,539.42,537.85,537.32,535.44,533.42,529.89,525.02,519.57,508.68,501.26,0.00,0.00,0.00,0.00,0.00,0.00,0.00,0.00,0.00,0.00,0.00,0.00,0.00,0.00,0.00,0.00,0.00,0.00,0.00,0.00,0.00,0.00,0.00,0.00,0.00,0.00,0.00,0.00,0.00,0.00,0.00,0.00,0.00,0.00,0.00,0.00,0.00,0.00,0.00,0.00,0.00,0.00,0.00,0.00,0.00,0.00,0.00,0.00,0.00,0.00,0.00,0.00,0.00,0.00,0.00,0.00
0.00,0.00,0.00,0.00,0.00,0.00,0.00,0.00,0.00,0.00,0.00,0.00,0.00,0.00,0.00,0.00,0.00,0.00,0.00,0.00,0.00,0.00,0.00,0.00,0.00,0.00,0.00,0.00,0.00,0.00,0.00,0.00,0.00,0.00,0.00,0.00,0.00,0.00,0.00,0.00,0.00,0.00,0.00,0.00,0.00,0.00,0.00,0.00,0.00,0.00,0.00,0.00,0.00,0.00,0.00,1554.60,1585.94,1599.70,1609.83,1609.99,1606.20,1606.63,1606.04,1607.42,1607.85,1608.16,1609.08,1607.64,1607.95,1606.53,1606.68,1608.18,1609.43,1610.40,1609.07,1609.75,1611.48,1613.72,1614.63,1615.53,1615.47,1616.26,1615.03,1614.90,1615.83,1617.09,1617.54,1616.79,1616.40,1617.62,1618.88,1620.22,1619.67,1619.44,1617.13,1613.35,1611.32,1612.15,1613.94,1615.38,1616.36,1616.45,1617.81,1619.39,0.00,0.00,0.00,0.00,1299.98,1317.17,0.00,0.00,1338.82,0.00,0.00,0.00,0.00,0.00,0.00,0.00,0.00,0.00,0.00,0.00,0.00,0.00,0.00,0.00,0.00,652.36,662.01,662.30,662.85,662.65,663.01,662.10,660.45,660.61,656.84,645.89,608.67,0.00,0.00,0.00,0.00,0.00,0.00,0.00,0.00,0.00,0.00,0.00,0.00,0.00,0.00,0.00,0.00,0.00,0.00,0.00,0.00,0.00,656.09,671.59,678.10,679.25,681.28,682.12,683.58,684.35,684.92,686.01,685.86,685.94,686.23,688.69,688.70,688.63,688.09,689.12,688.88,688.16,687.69,688.69,688.98,689.74,690.88,692.56,690.94,689.06,685.29,683.80,681.14,681.73,682.34,685.68,687.68,691.24,693.38,694.80,695.76,697.35,699.97,701.11,700.11,699.16,698.62,697.71,696.70,694.12,692.66,691.52,691.38,690.86,689.39,686.87,684.30,680.76,677.65,673.36,670.44,668.12,666.62,664.72,661.08,658.00,652.65,650.04,644.85,643.76,640.62,638.48,635.35,633.10,631.52,627.69,625.00,623.06,623.21,622.68,620.14,618.32,616.79,616.93,611.49,607.90,604.55,604.65,601.82,599.98,598.14,597.78,595.07,592.05,589.17,587.09,585.41,583.02,582.73,581.29,579.62,579.00,577.20,575.83,573.59,572.28,570.60,568.33,566.38,0.00,0.00,0.00,0.00,560.95,560.70,560.94,559.79,559.90,558.46,558.17,556.88,558.60,558.74,559.02,557.81,558.34,557.77,557.47,556.51,557.87,559.97,562.51,566.66,573.69,584.84,593.08,604.16,611.89,617.28,619.58,0.00,620.04,619.16,619.98,619.25,619.23,618.63,617.43,0.00,0.00,0.00,0.00,0.00,0.00,0.00,0.00,0.00,0.00,0.00,0.00,597.69,0.00,0.00,0.00,0.00,0.00,0.00,0.00,0.00,0.00,0.00,0.00,0.00,0.00,0.00,0.00,0.00,0.00,0.00,0.00,0.00,0.00,584.65,587.38,0.00,0.00,0.00,0.00,0.00,0.00,0.00,0.00,0.00,0.00,0.00,0.00,0.00,0.00,0.00,0.00,0.00,0.00,582.78,585.20,582.19,578.39,574.61,568.23,562.32,555.30,0.00,0.00,0.00,0.00,0.00,0.00,0.00,0.00,0.00,0.00,543.36,550.27,560.06,567.98,569.63,0.00,0.00,0.00,0.00,0.00,0.00,0.00,0.00,0.00,0.00,0.00,573.08,570.30,568.34,565.16,562.49,559.16,557.72,554.49,553.90,551.62,552.22,551.38,550.81,550.58,549.25,548.02,546.39,544.68,544.60,543.54,544.91,545.40,547.19,547.51,547.29,545.92,544.13,542.37,539.22,537.77,536.72,538.31,538.85,538.65,536.68,536.16,533.76,532.79,528.32,525.26,518.39,509.83,504.28,0.00,0.00,0.00,0.00,0.00,0.00,0.00,0.00,0.00,0.00,0.00,0.00,0.00,0.00,0.00,0.00,0.00,0.00,0.00,0.00,0.00,0.00,0.00,0.00,0.00,0.00,0.00,0.00,0.00,0.00,0.00,0.00,0.00,0.00,0.00,0.00,0.00,0.00,0.00,0.00,0.00,0.00,0.00,0.00,0.00,0.00,0.00,0.00,0.00,0.00,0.00,0.00,0.00,0.00,0.00,0.00
0.00,0.00,0.00,0.00,0.00,0.00,0.00,0.00,0.00,0.00,0.00,0.00,0.00,0.00,0.00,0.00,0.00,0.00,0.00,0.00,0.00,0.00,0.00,0.00,0.00,0.00,0.00,0.00,0.00,0.00,0.00,0.00,0.00,0.00,0.00,0.00,0.00,0.00,0.00,0.00,0.00,0.00,0.00,0.00,0.00,0.00,0.00,0.00,0.00,0.00,0.00,0.00,0.00,0.00,0.00,0.00,1586.09,1598.34,1610.28,1610.07,1607.50,1606.65,1607.24,1609.08,1608.88,1607.81,1608.85,1607.68,1609.04,1607.74,1608.48,1608.77,1609.39,1610.20,1609.03,1610.32,1611.46,1614.13,1614.30,1615.28,1615.56,1617.14,1616.49,1616.75,1616.89,1617.82,1618.08,1617.70,1618.28,1619.74,1621.06,1621.56,1622.15,1622.78,1620.21,1614.81,1611.85,1612.71,1615.14,1615.82,1616.46,1617.19,1619.63,1622.70,0.00,0.00,0.00,0.00,1295.07,1309.75,0.00,0.00,1343.67,0.00,0.00,0.00,0.00,0.00,0.00,0.00,0.00,0.00,0.00,0.00,0.00,0.00,0.00,0.00,657.33,667.79,672.11,672.06,671.49,670.35,670.94,669.53,668.97,667.68,665.20,659.71,642.49,0.00,0.00,0.00,0.00,0.00,0.00,0.00,0.00,0.00,0.00,0.00,0.00,0.00,0.00,0.00,0.00,0.00,0.00,0.00,0.00,0.00,632.00,656.72,669.14,672.16,674.54,675.36,675.73,675.48,676.06,677.57,678.54,678.91,679.10,680.11,679.56,678.70,676.90,675.63,673.34,670.25,669.81,667.99,665.74,663.91,664.45,665.63,663.90,659.66,655.94,651.10,645.56,0.00,0.00,0.00,658.65,666.38,674.45,682.98,691.18,696.18,699.98,701.17,701.65,700.17,700.05,697.91,696.62,693.90,694.12,692.95,692.29,690.02,689.11,687.79,685.67,681.11,678.35,675.40,672.99,669.00,667.15,665.01,662.74,658.44,653.37,649.99,645.28,642.40,639.90,638.06,636.67,633.62,631.68,628.31,626.85,626.02,625.79,623.93,621.13,618.19,616.85,616.70,615.00,611.82,609.39,608.47,606.65,604.01,601.84,599.22,596.82,594.47,593.10,590.32,587.66,585.14,584.72,582.63,581.32,579.85,579.16,576.98,575.24,573.81,571.45,569.29,566.41,564.75,562.18,562.12,560.55,559.92,560.59,0.00,0.00,0.00,559.36,559.58,557.65,558.07,557.27,558.49,0.00,556.82,556.38,556.44,556.89,556.73,557.55,557.02,559.58,565.52,573.80,579.55,588.25,597.75,607.56,613.46,618.07,621.43,0.00,620.74,0.00,0.00,0.00,0.00,0.00,0.00,0.00,0.00,0.00,0.00,0.00,604.94,0.00,0.00,0.00,598.86,596.11,594.00,593.61,0.00,0.00,0.00,0.00,0.00,0.00,0.00,0.00,0.00,0.00,0.00,0.00,0.00,0.00,0.00,0.00,0.00,0.00,0.00,0.00,0.00,0.00,0.00,0.00,0.00,0.00,0.00,0.00,0.00,0.00,0.00,0.00,0.00,0.00,0.00,0.00,0.00,0.00,582.73,585.16,585.83,584.57,578.77,574.58,566.50,562.82,556.12,551.27,0.00,0.00,538.86,0.00,0.00,0.00,0.00,0.00,0.00,541.89,549.54,562.29,573.91,0.00,0.00,576.24,0.00,0.00,0.00,578.41,578.37,0.00,0.00,0.00,0.00,0.00,574.50,573.27,570.60,568.66,564.75,562.14,559.64,558.14,556.10,555.86,555.86,555.53,555.03,553.46,551.49,549.64,547.58,547.75,547.15,548.53,549.13,550.56,550.23,548.41,547.12,546.12,545.43,542.99,542.40,540.80,541.88,541.75,541.79,539.45,538.52,537.05,535.45,530.68,527.59,522.82,515.71,510.12,503.55,0.00,0.00,0.00,0.00,0.00,0.00,0.00,0.00,0.00,0.00,0.00,0.00,0.00,0.00,0.00,0.00,0.00,0.00,0.00,0.00,0.00,0.00,0.00,0.00,0.00,0.00,0.00,0.00,0.00,0.00,0.00,0.00,0.00,0.00,0.00,0.00,0.00,0.00,0.00,0.00,0.00,0.00,0.00,0.00,0.00,0.00,0.00,0.00,0.00,0.00,0.00,0.00,0.00,0.00,0.00
0.00,0.00,0.00,0.00,0.00,0.00,0.00,0.00,0.00,0.00,0.00,0.00,0.00,0.00,0.00,0.00,0.00,0.00,0.00,0.00,0.00,0.00,0.00,0.00,0.00,0.00,0.00,0.00,0.00,0.00,0.00,0.00,0.00,0.00,0.00,0.00,0.00,0.00,0.00,0.00,0.00,0.00,0.00,0.00,0.00,0.00,0.00,0.00,0.00,0.00,0.00,0.00,0.00,0.00,0.00,0.00,1582.66,1595.88,1608.90,1608.46,1606.48,1605.08,1606.04,1607.76,1607.43,1605.63,1604.92,1605.30,1607.10,1607.78,1606.99,1607.78,1607.17,1608.12,1606.77,1607.62,1608.09,1609.93,1610.06,1612.13,1611.43,1612.42,1611.40,1612.64,1612.92,1614.77,1615.24,1616.63,1617.38,1619.23,1619.42,1619.83,1619.59,1620.01,1616.92,1612.17,1609.21,1609.88,1612.37,1613.43,1614.22,1615.27,1617.65,1620.29,0.00,0.00,0.00,0.00,0.00,1315.79,0.00,0.00,1341.89,0.00,0.00,0.00,0.00,0.00,0.00,0.00,0.00,0.00,0.00,0.00,0.00,0.00,640.07,655.87,665.27,671.20,671.63,670.27,669.26,669.61,670.08,669.75,667.99,665.90,661.35,657.72,642.79,0.00,0.00,0.00,0.00,0.00,0.00,0.00,0.00,0.00,0.00,0.00,0.00,0.00,0.00,0.00,0.00,0.00,0.00,0.00,0.00,0.00,0.00,0.00,638.06,642.75,644.17,646.68,646.41,646.28,644.96,646.05,645.06,647.23,646.55,647.78,644.94,644.28,0.00,0.00,0.00,0.00,0.00,0.00,0.00,0.00,0.00,0.00,0.00,0.00,0.00,0.00,0.00,0.00,0.00,0.00,0.00,0.00,0.00,0.00,665.55,679.09,690.75,698.31,701.66,700.10,698.79,697.11,695.74,693.92,693.77,692.14,691.39,688.47,687.76,686.83,684.34,679.46,675.17,672.99,669.49,666.89,664.85,663.22,659.35,654.05,648.77,647.16,643.99,641.39,636.39,634.63,633.77,632.25,629.96,627.46,625.26,624.00,622.52,621.02,618.85,616.29,615.36,615.15,614.52,612.91,610.24,608.75,605.55,602.94,600.42,597.32,594.87,593.28,592.53,589.35,586.21,584.21,583.21,580.49,577.46,575.78,575.64,575.93,574.53,571.76,568.04,0.00,563.07,562.58,561.05,561.54,0.00,0.00,0.00,0.00,0.00,0.00,0.00,556.37,554.57,0.00,0.00,0.00,0.00,0.00,0.00,0.00,554.25,554.76,554.27,553.14,552.84,556.60,560.26,563.63,567.34,574.71,583.97,594.23,604.40,612.72,616.41,615.40,616.18,616.26,617.70,616.10,616.32,615.36,613.69,0.00,0.00,0.00,0.00,0.00,603.84,0.00,0.00,0.00,594.42,0.00,0.00,590.93,0.00,0.00,0.00,0.00,591.07,0.00,0.00,0.00,0.00,0.00,0.00,0.00,586.39,0.00,0.00,0.00,0.00,0.00,585.18,0.00,0.00,0.00,0.00,0.00,0.00,0.00,0.00,0.00,0.00,0.00,0.00,0.00,0.00,0.00,0.00,0.00,0.00,0.00,583.94,585.07,583.83,577.52,570.81,563.63,560.33,554.46,0.00,547.22,0.00,0.00,0.00,0.00,0.00,0.00,0.00,0.00,0.00,547.34,560.45,574.30,577.46,0.00,576.53,577.46,0.00,0.00,0.00,581.38,579.70,577.32,0.00,0.00,574.58,573.49,573.84,573.78,571.92,568.27,0.00,563.79,561.48,558.67,557.14,556.87,556.12,555.40,553.78,552.45,551.06,549.70,548.72,548.80,549.95,549.90,549.62,547.68,547.19,546.66,546.98,545.18,543.35,542.92,542.10,543.25,543.72,543.30,541.42,540.50,540.13,536.04,529.98,528.58,526.15,521.16,515.39,507.50,0.00,0.00,0.00,0.00,0.00,0.00,0.00,0.00,0.00,0.00,0.00,0.00,0.00,0.00,0.00,0.00,0.00,0.00,0.00,0.00,0.00,0.00,0.00,0.00,0.00,0.00,0.00,0.00,0.00,0.00,0.00,0.00,0.00,0.00,0.00,0.00,0.00,0.00,0.00,0.00,0.00,0.00,0.00,0.00,0.00,0.00,0.00,0.00,0.00,0.00,0.00,0.00,0.00,0.00,0.00
0.00,0.00,0.00,0.00,0.00,0.00,0.00,0.00,0.00,0.00,0.00,0.00,0.00,0.00,0.00,0.00,0.00,0.00,0.00,0.00,0.00,0.00,0.00,0.00,0.00,0.00,0.00,0.00,0.00,0.00,0.00,0.00,0.00,0.00,0.00,0.00,0.00,0.00,0.00,0.00,0.00,0.00,0.00,0.00,0.00,0.00,0.00,0.00,0.00,0.00,0.00,0.00,0.00,0.00,0.00,0.00,1579.77,1592.16,1606.44,1607.97,1608.17,1607.03,1607.95,1609.04,1608.09,1606.52,1606.15,1607.07,1607.85,1607.29,1607.73,1608.68,1609.29,1608.76,1607.68,1607.16,1606.76,1607.96,1609.04,1611.89,1612.59,1613.14,1611.91,1612.84,1613.48,1614.08,1614.78,1617.37,1620.12,1620.55,1619.82,1619.14,1619.34,1620.03,1616.89,1613.14,1610.96,1611.97,1613.91,1613.50,1614.54,1616.50,1619.81,1623.77,0.00,0.00,0.00,0.00,1320.86,1336.21,0.00,0.00,0.00,0.00,0.00,0.00,0.00,0.00,0.00,0.00,0.00,0.00,0.00,0.00,0.00,627.98,641.27,656.27,663.84,667.61,666.94,665.28,663.96,664.82,665.50,665.03,661.35,655.04,646.98,639.32,628.52,0.00,0.00,0.00,0.00,0.00,0.00,0.00,0.00,0.00,0.00,0.00,0.00,0.00,0.00,0.00,0.00,0.00,0.00,0.00,0.00,0.00,0.00,0.00,0.00,0.00,0.00,0.00,0.00,0.00,0.00,0.00,0.00,0.00,0.00,0.00,0.00,0.00,0.00,0.00,0.00,0.00,0.00,0.00,0.00,0.00,0.00,0.00,0.00,0.00,0.00,0.00,0.00,0.00,0.00,0.00,0.00,0.00,0.00,0.00,0.00,0.00,665.94,682.67,694.28,699.17,699.90,698.67,698.05,695.89,695.60,693.47,692.96,690.07,688.77,687.47,686.11,682.67,679.18,675.07,670.62,666.49,665.94,664.34,661.52,654.57,648.83,645.19,643.28,642.10,638.66,635.91,634.03,631.97,630.14,627.98,625.71,623.45,622.14,620.77,620.42,618.19,618.32,616.88,617.79,616.12,614.44,610.79,608.31,605.76,604.31,599.72,597.24,593.90,593.36,591.20,590.06,587.92,585.36,582.53,581.19,578.99,578.59,578.06,576.85,572.94,568.70,567.14,565.64,565.00,563.51,0.00,0.00,563.82,561.87,557.44,555.70,0.00,0.00,558.88,557.77,556.47,554.24,554.50,0.00,557.26,0.00,0.00,0.00,0.00,0.00,553.42,0.00,554.83,0.00,558.04,559.18,561.72,566.42,572.80,584.46,595.34,604.51,607.27,611.74,613.24,615.48,613.66,614.13,612.89,612.68,611.65,0.00,607.00,605.72,605.19,605.51,601.80,0.00,597.59,597.60,0.00,591.36,590.55,593.93,0.00,591.07,0.00,0.00,588.11,585.40,584.08,584.39,0.00,0.00,0.00,587.21,585.07,582.49,0.00,583.93,584.79,585.43,587.19,0.00,0.00,592.08,0.00,0.00,0.00,0.00,0.00,0.00,0.00,0.00,0.00,0.00,0.00,0.00,0.00,584.67,584.28,586.59,587.15,584.99,577.24,570.76,563.98,560.61,0.00,0.00,549.35,0.00,0.00,0.00,0.00,0.00,0.00,0.00,0.00,0.00,548.04,561.70,577.29,581.73,581.37,581.97,582.53,585.24,585.61,0.00,586.90,586.04,585.45,583.55,580.55,578.55,577.41,578.32,578.78,578.35,576.82,574.56,572.86,568.24,565.15,561.79,561.05,559.72,558.79,557.66,557.05,556.99,555.21,552.77,552.11,552.73,553.25,551.34,549.84,549.65,550.18,550.35,549.28,548.84,548.25,547.77,548.19,549.07,547.57,547.20,547.04,545.59,539.40,533.90,531.97,532.73,529.01,524.06,513.24,500.06,0.00,0.00,0.00,0.00,0.00,0.00,0.00,0.00,0.00,0.00,0.00,0.00,0.00,0.00,0.00,0.00,0.00,0.00,0.00,0.00,0.00,0.00,0.00,0.00,0.00,0.00,0.00,0.00,0.00,0.00,0.00,0.00,0.00,0.00,0.00,0.00,0.00,0.00,0.00,0.00,0.00,0.00,0.00,0.00,0.00,0.00,0.00,0.00,0.00,0.00,0.00,0.00,0.00,0.00
0.00,0.00,0.00,0.00,0.00,0.00,0.00,0.00,0.00,0.00,0.00,0.00,0.00,0.00,0.00,0.00,0.00,0.00,0.00,0.00,0.00,0.00,0.00,0.00,0.00,0.00,0.00,0.00,0.00,0.00,0.00,0.00,0.00,0.00,0.00,0.00,0.00,0.00,0.00,0.00,0.00,0.00,0.00,0.00,0.00,0.00,0.00,0.00,0.00,0.00,0.00,0.00,0.00,0.00,0.00,1556.97,1579.59,1591.48,1605.12,1605.31,1604.63,1603.47,1604.62,1606.49,1606.70,1605.81,1605.13,1605.44,1604.84,1603.97,1605.29,1608.62,1609.18,1607.97,1606.67,1605.75,1603.77,1604.53,1605.93,1609.55,1609.77,1609.65,1608.99,1609.85,1611.12,1611.85,1612.70,1615.84,1617.86,1617.47,1615.56,1615.59,1615.70,1616.99,1613.41,1611.14,1609.79,1611.84,1613.45,1613.16,1613.98,1616.20,1619.14,1622.70,0.00,0.00,0.00,0.00,0.00,0.00,0.00,0.00,0.00,0.00,0.00,0.00,0.00,0.00,0.00,0.00,0.00,0.00,0.00,0.00,0.00,0.00,0.00,636.01,644.19,649.63,648.69,646.55,643.87,646.00,646.19,645.13,0.00,0.00,0.00,0.00,0.00,0.00,0.00,0.00,0.00,0.00,0.00,0.00,0.00,0.00,0.00,0.00,0.00,0.00,0.00,0.00,0.00,0.00,0.00,0.00,0.00,0.00,0.00,0.00,0.00,0.00,0.00,0.00,0.00,0.00,0.00,0.00,0.00,0.00,0.00,0.00,0.00,0.00,0.00,0.00,0.00,0.00,0.00,0.00,0.00,0.00,0.00,0.00,0.00,0.00,0.00,0.00,0.00,0.00,0.00,0.00,0.00,0.00,0.00,0.00,0.00,0.00,0.00,0.00,668.08,684.23,691.23,695.23,696.17,695.54,693.52,691.40,690.98,689.20,687.19,685.29,682.72,680.49,676.97,673.79,668.91,666.05,664.38,662.36,657.88,652.95,646.36,642.28,638.93,639.51,636.93,634.21,631.60,628.80,627.84,627.07,625.34,621.40,618.47,617.52,617.94,617.28,616.11,615.13,614.89,614.89,612.20,609.25,606.00,604.05,602.23,600.14,597.60,594.62,592.48,590.64,588.38,586.67,583.64,581.67,578.15,576.82,575.95,577.54,576.57,572.90,567.72,0.00,565.34,564.80,0.00,563.49,0.00,563.72,561.40,0.00,0.00,556.46,0.00,557.89,556.84,555.68,553.11,0.00,0.00,554.69,556.49,0.00,0.00,0.00,0.00,0.00,0.00,549.55,551.00,552.20,553.31,555.55,557.92,560.06,565.31,571.29,578.83,585.86,596.23,604.24,609.08,609.58,609.33,607.49,0.00,609.24,609.23,606.10,605.33,604.57,603.74,599.16,0.00,597.64,597.77,593.99,0.00,0.00,593.20,592.87,0.00,0.00,0.00,0.00,0.00,0.00,0.00,0.00,0.00,0.00,0.00,0.00,0.00,0.00,0.00,582.35,582.80,584.60,0.00,0.00,588.22,589.39,589.39,586.79,582.91,0.00,0.00,0.00,0.00,0.00,0.00,0.00,0.00,582.49,581.19,581.12,583.97,584.19,580.78,574.25,569.12,562.51,556.34,550.94,0.00,0.00,0.00,0.00,0.00,0.00,0.00,0.00,0.00,0.00,0.00,0.00,556.25,572.15,579.43,581.34,0.00,584.87,588.06,589.49,590.92,589.64,588.89,588.32,588.75,587.18,583.75,581.22,580.21,580.95,581.13,580.86,578.56,575.67,570.17,568.10,566.26,565.92,564.80,564.02,562.67,561.43,559.84,558.80,554.99,554.06,553.82,554.32,551.41,549.29,549.15,550.03,550.13,548.95,548.90,549.03,550.22,550.91,551.75,550.61,550.15,549.82,547.18,543.09,538.76,536.27,535.77,533.43,527.55,515.98,501.21,0.00,0.00,0.00,0.00,0.00,0.00,0.00,0.00,0.00,0.00,0.00,0.00,0.00,0.00,0.00,0.00,0.00,0.00,0.00,0.00,0.00,0.00,0.00,0.00,0.00,0.00,0.00,0.00,0.00,0.00,0.00,0.00,0.00,0.00,0.00,0.00,0.00,0.00,0.00,0.00,0.00,0.00,0.00,0.00,0.00,0.00,0.00,0.00,0.00,0.00,0.00,0.00,0.00,0.00
0.00,0.00,0.00,0.00,0.00,0.00,0.00,0.00,0.00,0.00,0.00,0.00,0.00,0.00,0.00,0.00,0.00,0.00,0.00,0.00,0.00,0.00,0.00,0.00,0.00,0.00,0.00,0.00,0.00,0.00,0.00,0.00,0.00,0.00,0.00,0.00,0.00,0.00,0.00,0.00,0.00,0.00,0.00,0.00,0.00,0.00,0.00,0.00,0.00,0.00,0.00,0.00,0.00,0.00,0.00,0.00,1578.80,1591.59,1603.91,1604.65,1604.29,1604.01,1604.52,1605.81,1606.48,1605.26,1605.54,1604.07,1603.55,1602.06,1605.20,1607.34,1608.39,1606.99,1606.30,1606.13,1604.74,1605.26,1606.54,1609.67,1611.84,1611.54,1611.27,1611.18,1613.07,1614.34,1615.02,1617.13,1618.41,1617.86,1617.51,1617.81,1620.01,1621.33,1619.76,1618.21,1618.01,1620.53,1622.37,1621.49,1622.16,1622.81,1625.94,1627.44,0.00,0.00,0.00,0.00,0.00,0.00,0.00,0.00,0.00,0.00,0.00,0.00,0.00,0.00,0.00,0.00,0.00,0.00,0.00,0.00,0.00,0.00,0.00,0.00,0.00,607.59,612.93,608.89,604.55,0.00,0.00,0.00,0.00,0.00,0.00,0.00,0.00,0.00,0.00,0.00,0.00,0.00,0.00,0.00,0.00,0.00,0.00,0.00,0.00,0.00,0.00,0.00,0.00,0.00,0.00,0.00,0.00,0.00,0.00,0.00,0.00,0.00,0.00,0.00,0.00,0.00,0.00,0.00,0.00,0.00,0.00,0.00,0.00,0.00,0.00,0.00,0.00,0.00,0.00,0.00,0.00,0.00,0.00,0.00,0.00,0.00,0.00,0.00,0.00,0.00,0.00,0.00,0.00,0.00,0.00,0.00,0.00,0.00,0.00,0.00,0.00,0.00,673.22,685.25,692.39,693.59,692.25,690.07,689.03,688.11,687.05,686.55,684.02,683.33,679.40,675.79,670.61,667.57,665.50,663.01,658.91,655.38,648.90,644.19,640.65,641.01,639.06,636.75,634.54,631.05,629.24,628.03,626.84,623.45,620.91,619.63,620.40,618.54,616.73,615.76,615.49,615.08,610.79,607.82,605.72,604.49,603.44,601.81,598.50,595.97,594.00,592.60,589.93,588.24,586.06,584.34,580.93,578.81,578.52,579.73,579.31,575.60,571.60,570.17,569.08,567.48,565.37,562.90,0.00,0.00,564.73,0.00,559.52,0.00,0.00,0.00,0.00,0.00,554.45,0.00,553.17,0.00,0.00,0.00,0.00,0.00,0.00,0.00,552.53,551.39,551.88,552.47,554.65,556.11,556.62,555.89,556.49,559.66,563.52,568.57,578.41,589.83,599.56,603.78,606.52,606.38,608.17,607.99,0.00,606.88,0.00,605.22,603.63,599.36,0.00,598.50,0.00,596.07,593.92,0.00,0.00,0.00,0.00,0.00,0.00,0.00,0.00,0.00,0.00,0.00,0.00,0.00,0.00,0.00,0.00,0.00,0.00,0.00,0.00,0.00,0.00,0.00,0.00,0.00,0.00,0.00,583.88,583.42,581.70,0.00,0.00,0.00,0.00,0.00,0.00,0.00,0.00,582.93,585.94,584.44,579.38,573.20,568.13,560.94,554.88,550.38,0.00,0.00,0.00,0.00,0.00,0.00,0.00,0.00,0.00,0.00,0.00,0.00,555.48,570.26,580.16,583.86,586.17,589.29,592.61,0.00,594.81,0.00,595.11,594.76,595.71,594.83,592.66,590.77,587.69,587.44,587.98,589.84,587.27,584.40,579.78,579.25,577.55,577.53,577.86,577.99,576.33,572.88,568.25,564.31,560.36,560.27,560.84,561.71,559.17,557.41,555.79,555.34,555.24,555.90,556.29,557.16,557.61,558.19,558.51,557.41,556.27,555.05,552.09,548.52,543.71,539.45,536.58,534.17,528.26,518.78,507.86,0.00,0.00,0.00,0.00,0.00,0.00,0.00,0.00,0.00,0.00,0.00,0.00,0.00,0.00,0.00,0.00,0.00,0.00,0.00,0.00,0.00,0.00,0.00,0.00,0.00,0.00,0.00,0.00,0.00,0.00,0.00,0.00,0.00,0.00,0.00,0.00,0.00,0.00,0.00,0.00,0.00,0.00,0.00,0.00,0.00,0.00,0.00,0.00,0.00,0.00,0.00,0.00,0.00,0.00
0.00,0.00,0.00,0.00,0.00,0.00,0.00,0.00,0.00,0.00,0.00,0.00,0.00,0.00,0.00,0.00,0.00,0.00,0.00,0.00,0.00,0.00,0.00,0.00,0.00,0.00,0.00,0.00,0.00,0.00,0.00,0.00,0.00,0.00,0.00,0.00,0.00,0.00,0.00,0.00,0.00,0.00,0.00,0.00,0.00,0.00,0.00,0.00,0.00,0.00,0.00,0.00,0.00,0.00,0.00,0.00,1577.19,1588.91,1601.59,1601.96,1602.76,1603.19,1602.22,1602.84,1603.07,1603.43,1603.60,1602.41,1601.52,1601.68,1603.19,1605.65,1605.93,1605.57,1604.72,1605.05,1604.64,1605.10,1606.00,1608.80,1611.04,1610.82,1610.88,1611.45,1614.64,1616.96,1617.69,1618.99,1621.08,1623.55,1622.82,1623.95,1625.63,1630.32,1627.87,1628.99,0.00,0.00,0.00,0.00,0.00,0.00,0.00,0.00,0.00,0.00,0.00,0.00,0.00,0.00,0.00,0.00,0.00,0.00,0.00,0.00,0.00,0.00,0.00,0.00,0.00,0.00,0.00,0.00,0.00,0.00,0.00,0.00,516.15,550.41,563.80,560.90,0.00,0.00,0.00,0.00,0.00,0.00,0.00,0.00,0.00,0.00,0.00,0.00,0.00,0.00,0.00,0.00,0.00,0.00,0.00,0.00,0.00,0.00,0.00,0.00,0.00,0.00,0.00,0.00,0.00,0.00,0.00,0.00,0.00,0.00,0.00,0.00,0.00,0.00,0.00,0.00,0.00,0.00,0.00,0.00,0.00,0.00,0.00,0.00,0.00,0.00,0.00,0.00,0.00,0.00,0.00,0.00,0.00,0.00,0.00,0.00,0.00,0.00,0.00,0.00,0.00,0.00,0.00,0.00,0.00,0.00,0.00,0.00,0.00,0.00,0.00,0.00,668.68,680.75,687.11,686.43,684.96,684.74,685.08,684.23,681.04,678.77,674.82,672.47,667.48,665.85,661.86,659.38,653.77,652.22,647.36,644.92,640.74,639.10,634.94,632.62,631.40,629.42,627.52,627.26,626.44,624.00,619.81,618.05,617.75,616.52,613.51,613.04,611.33,611.25,606.92,606.28,603.06,602.31,600.39,600.11,595.80,594.27,592.74,591.91,587.85,585.81,583.79,582.13,579.31,578.10,577.33,577.24,574.98,572.93,570.41,569.81,567.71,565.88,0.00,0.00,0.00,0.00,0.00,0.00,0.00,0.00,0.00,0.00,0.00,0.00,0.00,0.00,0.00,0.00,0.00,0.00,0.00,0.00,0.00,0.00,549.06,0.00,0.00,0.00,0.00,551.47,551.79,549.60,549.34,551.50,554.39,556.91,560.55,567.38,575.88,585.03,591.03,596.51,601.13,603.83,0.00,0.00,605.05,0.00,0.00,0.00,0.00,0.00,0.00,0.00,0.00,0.00,0.00,0.00,596.54,0.00,0.00,0.00,0.00,0.00,0.00,0.00,0.00,0.00,0.00,0.00,0.00,0.00,0.00,0.00,0.00,0.00,0.00,0.00,0.00,0.00,0.00,0.00,0.00,0.00,0.00,0.00,0.00,0.00,0.00,0.00,0.00,0.00,0.00,0.00,582.79,581.38,574.73,568.26,563.11,557.37,0.00,0.00,0.00,0.00,0.00,0.00,0.00,0.00,0.00,0.00,0.00,0.00,0.00,0.00,549.29,563.54,576.36,583.46,586.31,0.00,0.00,0.00,0.00,596.04,598.67,599.30,0.00,598.85,596.81,595.26,593.04,0.00,593.40,595.20,594.24,593.65,591.10,590.64,587.81,586.55,586.38,586.32,584.78,581.16,575.57,571.72,567.83,568.35,567.78,567.26,565.35,563.94,563.67,562.65,562.01,561.11,560.91,562.21,563.16,564.49,564.74,563.73,560.65,557.61,554.57,550.33,545.25,540.66,535.93,530.84,521.28,515.57,508.27,504.74,0.00,0.00,0.00,0.00,0.00,0.00,0.00,0.00,0.00,0.00,0.00,0.00,0.00,0.00,0.00,0.00,0.00,0.00,0.00,0.00,0.00,0.00,0.00,0.00,0.00,0.00,0.00,0.00,0.00,0.00,0.00,0.00,0.00,0.00,0.00,0.00,0.00,0.00,0.00,0.00,0.00,0.00,0.00,0.00,0.00,0.00,0.00,0.00,0.00,0.00,0.00,0.00,0.00
0.00,0.00,0.00,0.00,0.00,0.00,0.00,0.00,0.00,0.00,0.00,0.00,0.00,0.00,0.00,0.00,0.00,0.00,0.00,0.00,0.00,0.00,0.00,0.00,0.00,0.00,0.00,0.00,0.00,0.00,0.00,0.00,0.00,0.00,0.00,0.00,0.00,0.00,0.00,0.00,0.00,0.00,0.00,0.00,0.00,0.00,0.00,0.00,0.00,0.00,0.00,0.00,0.00,0.00,0.00,0.00,1575.96,1586.51,1599.31,1600.98,1603.80,1604.74,1603.75,1602.91,1602.27,1602.58,1603.68,1603.91,1604.26,1604.68,1604.59,1605.27,1606.66,1607.09,1606.57,1606.39,1607.66,1608.86,1611.27,1614.65,1619.01,1618.75,1616.36,1615.37,1622.01,1629.25,1628.72,1630.73,0.00,0.00,0.00,0.00,565.77,575.95,580.16,588.47,595.04,600.25,602.12,598.80,593.70,581.55,543.64,0.00,565.07,573.52,0.00,0.00,0.00,0.00,0.00,0.00,0.00,0.00,0.00,0.00,0.00,0.00,0.00,0.00,0.00,0.00,0.00,0.00,0.00,0.00,0.00,0.00,0.00,510.29,531.20,0.00,0.00,0.00,0.00,0.00,0.00,0.00,0.00,0.00,0.00,0.00,0.00,0.00,0.00,0.00,0.00,0.00,0.00,0.00,0.00,0.00,0.00,0.00,0.00,0.00,0.00,0.00,0.00,0.00,0.00,0.00,0.00,0.00,0.00,0.00,0.00,0.00,0.00,0.00,0.00,0.00,0.00,0.00,0.00,0.00,0.00,0.00,0.00,0.00,0.00,0.00,0.00,0.00,0.00,0.00,0.00,0.00,0.00,0.00,0.00,0.00,0.00,0.00,0.00,0.00,0.00,0.00,0.00,0.00,0.00,0.00,0.00,0.00,0.00,0.00,0.00,0.00,0.00,0.00,668.94,676.93,681.55,683.62,683.85,684.03,682.26,679.89,675.86,672.09,667.74,665.32,662.16,659.52,654.92,651.75,648.75,646.43,643.47,639.88,636.22,633.27,632.85,630.64,629.81,628.38,627.69,624.89,621.37,618.03,618.14,616.28,616.03,614.63,612.17,609.73,605.67,606.97,604.78,604.64,603.13,601.90,597.31,594.65,593.94,593.75,591.08,589.24,587.73,585.80,584.17,581.65,580.11,577.74,576.51,575.59,575.31,573.85,571.21,569.08,0.00,563.98,560.75,559.28,0.00,0.00,558.79,0.00,0.00,0.00,557.39,0.00,0.00,0.00,0.00,0.00,0.00,0.00,0.00,550.18,549.43,551.70,551.01,0.00,550.58,549.15,0.00,548.49,548.95,547.98,547.42,549.88,553.35,555.56,555.02,556.20,559.77,567.12,575.32,584.96,593.14,599.02,602.18,0.00,605.10,604.33,600.64,599.40,0.00,599.65,0.00,0.00,592.90,0.00,0.00,0.00,0.00,0.00,587.91,0.00,0.00,0.00,0.00,0.00,0.00,0.00,0.00,0.00,0.00,0.00,0.00,0.00,0.00,0.00,0.00,0.00,0.00,0.00,0.00,0.00,0.00,0.00,0.00,0.00,0.00,0.00,0.00,0.00,0.00,0.00,580.16,582.53,585.23,582.52,576.21,570.03,565.16,560.08,0.00,549.24,0.00,0.00,0.00,0.00,0.00,0.00,0.00,0.00,0.00,0.00,0.00,0.00,548.54,562.88,578.26,587.01,0.00,0.00,594.76,0.00,599.07,0.00,0.00,605.64,0.00,603.54,601.67,600.67,601.20,602.51,604.53,605.08,604.75,605.05,603.45,599.86,595.39,593.72,594.62,592.81,591.45,587.58,585.72,581.36,579.20,577.11,575.15,572.97,572.67,571.99,572.04,570.10,568.04,566.23,565.54,568.33,569.16,570.68,570.38,568.52,564.99,561.55,558.32,551.60,546.67,541.81,536.42,527.15,519.04,515.12,510.76,505.55,0.00,0.00,0.00,0.00,0.00,0.00,0.00,0.00,0.00,0.00,0.00,0.00,0.00,0.00,0.00,0.00,0.00,0.00,0.00,0.00,0.00,0.00,0.00,0.00,0.00,0.00,0.00,0.00,0.00,0.00,0.00,0.00,0.00,0.00,0.00,0.00,0.00,0.00,0.00,0.00,0.00,0.00,0.00,0.00,0.00,0.00,0.00,0.00,0.00,0.00,0.00,0.00,0.00
0.00,0.00,0.00,0.00,0.00,0.00,0.00,0.00,0.00,0.00,0.00,0.00,0.00,0.00,0.00,0.00,0.00,0.00,0.00,0.00,0.00,0.00,0.00,0.00,0.00,0.00,0.00,0.00,0.00,0.00,0.00,0.00,0.00,0.00,0.00,0.00,0.00,0.00,0.00,0.00,0.00,0.00,0.00,0.00,0.00,0.00,0.00,0.00,0.00,0.00,0.00,0.00,0.00,0.00,0.00,0.00,1571.55,1583.46,1597.56,1601.12,1603.14,1603.85,1602.63,1602.76,1600.92,1602.02,1602.96,1606.45,1606.52,1608.56,1607.05,1606.75,1606.60,1611.15,0.00,0.00,0.00,0.00,0.00,0.00,0.00,0.00,0.00,0.00,559.37,565.84,567.44,572.15,576.67,583.15,586.64,589.64,588.80,590.08,591.52,594.18,598.55,602.24,603.42,602.64,600.31,599.60,596.86,593.47,591.62,592.52,594.53,595.63,594.48,593.87,593.85,597.07,593.98,587.81,0.00,0.00,0.00,0.00,0.00,0.00,0.00,0.00,0.00,0.00,0.00,516.60,517.45,506.93,0.00,500.41,503.14,0.00,0.00,0.00,0.00,0.00,0.00,0.00,0.00,0.00,0.00,0.00,0.00,0.00,0.00,0.00,0.00,0.00,0.00,0.00,0.00,0.00,0.00,0.00,0.00,0.00,0.00,0.00,0.00,0.00,0.00,0.00,0.00,0.00,0.00,0.00,0.00,0.00,0.00,0.00,0.00,0.00,0.00,0.00,0.00,0.00,0.00,0.00,0.00,0.00,0.00,0.00,0.00,0.00,0.00,0.00,0.00,0.00,0.00,0.00,0.00,0.00,0.00,0.00,0.00,0.00,0.00,0.00,0.00,0.00,0.00,0.00,0.00,0.00,0.00,0.00,0.00,0.00,0.00,0.00,0.00,0.00,662.85,672.72,679.29,680.17,678.26,675.66,672.10,668.64,664.65,662.70,659.39,656.52,651.54,647.87,643.32,639.67,636.89,635.06,633.30,631.50,630.21,628.36,626.92,625.42,624.06,622.08,618.82,615.44,614.34,612.89,611.72,608.50,605.54,605.00,603.81,606.11,602.86,602.14,599.96,599.70,596.35,594.24,592.49,592.39,591.29,590.73,587.60,584.64,583.14,582.04,579.65,575.82,574.69,575.12,575.20,573.46,570.28,568.80,566.59,564.46,560.18,0.00,555.49,0.00,557.49,558.46,556.86,555.97,554.01,552.40,550.82,0.00,0.00,0.00,0.00,0.00,546.16,547.07,546.21,547.60,546.54,547.49,547.76,546.59,545.52,543.99,545.47,545.06,544.71,546.60,550.03,552.78,551.39,551.47,552.37,556.90,561.37,569.73,578.25,588.62,594.81,599.52,600.81,602.06,598.56,0.00,0.00,0.00,599.15,596.95,0.00,0.00,0.00,0.00,0.00,0.00,0.00,0.00,0.00,0.00,0.00,0.00,0.00,0.00,0.00,0.00,0.00,0.00,0.00,0.00,0.00,0.00,0.00,0.00,0.00,0.00,0.00,0.00,0.00,0.00,0.00,0.00,0.00,0.00,0.00,0.00,0.00,0.00,0.00,580.02,582.58,580.06,574.21,568.13,564.25,560.27,552.85,0.00,0.00,0.00,0.00,0.00,0.00,0.00,0.00,0.00,0.00,0.00,0.00,0.00,543.97,557.35,572.78,583.82,0.00,593.62,0.00,0.00,0.00,603.60,605.55,0.00,604.78,604.81,603.99,604.35,606.80,608.35,609.91,607.97,606.30,605.90,604.75,600.53,596.56,594.40,593.83,590.59,588.69,586.36,585.58,583.46,581.54,578.16,574.34,571.89,570.96,570.28,569.89,569.50,567.59,564.76,562.96,565.45,567.62,568.45,566.28,564.88,560.35,556.86,550.83,544.66,542.41,540.78,535.83,523.26,514.51,507.62,500.76,0.00,0.00,0.00,0.00,0.00,0.00,0.00,0.00,0.00,0.00,0.00,0.00,0.00,0.00,0.00,0.00,0.00,0.00,0.00,0.00,0.00,0.00,0.00,0.00,0.00,0.00,0.00,0.00,0.00,0.00,0.00,0.00,0.00,0.00,0.00,0.00,0.00,0.00,0.00,0.00,0.00,0.00,0.00,0.00,0.00,0.00,0.00,0.00,0.00,0.00,0.00,0.00,0.00,0.00
0.00,0.00,0.00,0.00,0.00,0.00,0.00,0.00,0.00,0.00,0.00,0.00,0.00,0.00,0.00,0.00,0.00,0.00,0.00,0.00,0.00,0.00,0.00,0.00,0.00,0.00,0.00,0.00,0.00,0.00,0.00,0.00,0.00,0.00,0.00,0.00,0.00,0.00,0.00,0.00,0.00,0.00,0.00,0.00,0.00,0.00,0.00,0.00,0.00,0.00,0.00,0.00,0.00,0.00,0.00,0.00,1568.94,1582.24,1598.34,1603.01,1604.88,1605.21,1605.19,1608.71,0.00,0.00,0.00,0.00,0.00,0.00,0.00,0.00,0.00,0.00,0.00,0.00,0.00,0.00,0.00,0.00,0.00,524.53,574.13,578.03,578.18,578.18,578.81,581.57,584.03,587.61,590.10,593.48,594.88,595.81,597.41,599.16,603.69,605.90,607.15,605.93,603.98,601.71,598.40,596.48,597.63,600.86,603.97,605.29,605.51,605.32,607.73,610.73,610.91,605.37,592.65,573.12,0.00,538.76,539.19,539.82,525.30,509.90,507.34,514.99,527.01,535.84,539.65,539.30,529.15,0.00,0.00,0.00,0.00,0.00,0.00,0.00,0.00,0.00,0.00,0.00,0.00,0.00,0.00,0.00,0.00,0.00,0.00,0.00,0.00,0.00,0.00,0.00,0.00,0.00,0.00,0.00,0.00,0.00,0.00,0.00,0.00,0.00,0.00,0.00,0.00,0.00,0.00,0.00,0.00,0.00,0.00,0.00,0.00,0.00,0.00,0.00,0.00,0.00,0.00,0.00,0.00,0.00,0.00,0.00,0.00,0.00,0.00,0.00,0.00,0.00,0.00,0.00,0.00,0.00,0.00,0.00,0.00,0.00,0.00,0.00,0.00,0.00,0.00,0.00,0.00,0.00,0.00,0.00,0.00,0.00,0.00,0.00,0.00,0.00,655.68,666.15,672.71,675.04,672.00,667.81,664.54,661.92,658.45,655.63,650.59,642.10,626.90,613.56,611.77,619.94,627.88,631.19,630.75,627.47,626.20,623.05,622.18,620.38,619.49,615.83,615.21,613.43,612.15,607.59,605.31,606.00,606.32,607.18,604.88,603.51,601.84,600.06,598.56,596.87,595.82,594.72,594.57,593.55,591.72,588.93,588.14,586.36,583.55,579.02,578.00,578.68,579.40,576.48,572.52,570.35,568.49,566.45,563.20,560.16,558.84,559.34,558.80,558.03,556.14,555.85,554.67,553.48,551.13,550.86,0.00,546.90,544.10,543.26,544.17,544.78,544.99,546.64,546.00,547.12,0.00,547.23,545.42,542.58,544.55,544.78,544.29,545.20,547.55,549.06,548.28,548.98,551.63,555.82,559.31,563.84,569.76,577.73,587.80,594.14,598.14,600.18,599.07,0.00,0.00,0.00,0.00,0.00,0.00,0.00,0.00,0.00,0.00,0.00,0.00,0.00,0.00,0.00,0.00,0.00,0.00,0.00,0.00,0.00,0.00,0.00,0.00,0.00,0.00,0.00,0.00,0.00,0.00,0.00,0.00,0.00,0.00,0.00,0.00,0.00,0.00,0.00,0.00,0.00,0.00,0.00,580.47,580.25,582.80,580.54,576.44,572.54,569.01,563.64,554.11,548.31,544.91,0.00,0.00,0.00,0.00,0.00,0.00,0.00,0.00,0.00,0.00,0.00,544.96,555.81,572.12,584.61,0.00,0.00,0.00,0.00,0.00,606.36,0.00,0.00,608.76,609.71,610.67,611.63,615.37,615.73,615.34,610.34,606.51,603.68,602.65,597.98,595.17,591.82,592.29,589.01,587.44,583.94,582.85,581.02,580.14,577.24,575.53,574.28,573.64,571.82,570.17,569.60,567.77,565.05,563.42,565.20,566.21,565.26,562.09,561.31,557.25,552.99,547.30,541.28,538.82,535.16,526.86,514.93,508.08,0.00,0.00,0.00,0.00,0.00,0.00,0.00,0.00,0.00,0.00,0.00,0.00,0.00,0.00,0.00,0.00,0.00,0.00,0.00,0.00,0.00,0.00,0.00,0.00,0.00,0.00,0.00,0.00,0.00,0.00,0.00,0.00,0.00,0.00,0.00,0.00,0.00,0.00,0.00,0.00,0.00,0.00,0.00,0.00,0.00,0.00,0.00,0.00,0.00,0.00,0.00,0.00,0.00,0.00,0.00,0.00
