0.00,0.00,0.00,0.00,0.00,0.00,0.00,0.00,0.00,0.00,0.00,0.00,0.00,0.00,0.00,0.00,0.00,0.00,0.00,0.00,0.00,0.00,0.00,0.00,0.00,0.00,0.00,0.00,0.00,1250.29,1264.39,1269.87,1254.97,1222.52,1200.15,1197.84,1204.12,1225.72,1255.56,1282.62,1292.14,0.00,0.00,0.00,0.00,0.00,0.00,0.00,0.00,0.00,0.00,0.00,0.00,0.00,0.00,0.00,0.00,0.00,0.00,0.00,0.00,0.00,0.00,0.00,0.00,0.00,0.00,0.00,0.00,0.00,0.00,0.00,0.00,1387.28,1389.43,1390.63,1389.96,1389.42,1391.02,1393.84,1397.07,1397.81,1397.61,1399.35,1397.93,1399.70,1400.20,1401.56,1400.15,1399.79,1400.71,1399.51,1400.81,1403.59,1408.43,1405.63,1404.82,1402.00,1403.37,1402.48,1404.81,1404.35,1404.23,1404.42,1407.02,1408.83,1407.56,1405.80,1405.68,1407.30,1409.07,1410.56,1410.99,1411.05,1410.33,1408.59,1408.55,1408.89,1412.32,1412.11,1412.19,1411.57,1413.12,1413.99,1413.00,1412.00,1411.69,1413.70,1414.35,1414.17,1412.97,1413.59,1414.20,1415.49,1415.62,1414.92,1416.07,1416.22,1417.77,1416.85,1417.05,1416.37,1416.87,1417.60,1417.63,1416.75,1417.67,1419.26,1420.46,1419.09,1419.26,1419.31,1419.47,1418.45,1418.68,1420.30,1421.03,1421.12,1420.90,1421.27,1420.85,1419.82,1418.94,1419.37,1419.57,1421.24,1421.55,1422.02,1421.24,1421.76,1422.08,1423.42,1423.91,1424.84,1423.58,1422.71,1423.01,1424.64,1425.43,1424.25,1423.55,1423.23,1424.66,1425.59,1427.18,1426.59,1425.73,1424.78,1424.79,1425.11,1426.18,1426.89,1427.20,1426.41,1426.75,1427.18,1427.67,1426.61,1427.86,1428.84,1428.53,1428.54,1428.56,1431.08,1430.32,1431.83,1430.92,1430.38,1431.22,1432.34,1433.38,1433.26,1434.30,1435.61,1434.33,1432.94,1433.12,1435.02,1436.90,1435.20,1435.00,1434.18,1435.98,1434.02,1434.39,1433.31,1434.43,1434.51,1436.65,1437.57,1438.95,1438.28,1438.48,1437.79,1438.38,1438.52,1438.65,1439.31,1440.04,1441.36,1440.62,1441.14,1440.49,1442.23,1442.64,1444.05,1443.56,1444.16,1443.77,1444.03,1444.04,1443.94,1445.24,1445.75,1446.87,1446.06,1445.35,1445.77,1446.27,1447.07,1447.16,1448.27,1448.58,1449.27,1449.70,1451.59,1452.44,1452.89,1452.94,1451.72,1452.16,1452.53,1453.77,1452.92,1453.54,1452.70,1453.96,1453.54,1454.47,1454.66,1455.60,1456.57,1457.46,1457.70,1459.52,1459.89,1460.19,1457.81,1458.32,1458.72,1460.57,1461.58,1463.08,1463.23,1462.14,1460.89,1461.21,1461.65,1463.88,1463.85,1463.45,1463.10,1465.65,1466.53,1466.18,1465.63,1466.40,1467.80,1467.41,1466.73,1465.30,1466.01,1467.71,1468.78,1468.34,1468.21,1467.00,1467.99,1467.91,1470.88,1470.61,1471.92,1472.56,1472.95,1472.36,1472.35,1474.48,1475.67,1475.69,1473.74,1471.07,1469.62,1470.84,1473.53,1474.95,1476.46,1477.65,1477.46,1475.71,1475.60,1474.61,1477.15,1478.70,1481.76,1480.12,1477.24,1476.97,1478.19,1477.23,1475.32,1474.00,1477.38,1477.66,1479.48,1475.25,1473.26,1470.18,1471.25,1472.92,1473.14,1476.51,0.00,0.00,0.00,0.00,0.00,0.00,0.00,0.00,0.00,0.00,0.00,0.00,0.00,0.00,0.00,0.00,0.00,0.00,0.00,0.00,0.00,0.00,0.00,0.00,0.00,0.00,0.00,0.00,0.00,0.00,0.00,0.00,0.00,0.00,0.00,0.00,0.00,0.00,0.00,0.00,0.00,0.00,0.00,0.00,0.00,0.00,0.00,0.00,0.00,0.00,0.00,0.00,0.00,0.00,0.00,0.00,0.00,0.00,0.00,0.00,0.00,0.00,0.00,0.00,0.00,0.00,0.00,0.00,0.00,0.00,0.00,0.00,0.00,0.00,0.00,0.00,0.00,0.00,0.00,0.00,0.00,0.00,0.00,0.00,0.00,0.00,0.00,0.00,0.00,0.00,0.00,0.00,0.00,0.00,0.00,0.00,0.00,0.00,0.00,0.00,0.00,0.00,0.00,0.00,0.00,0.00,0.00,0.00,0.00,0.00,0.00,0.00,0.00,0.00,0.00,0.00,0.00,0.00,0.00,0.00,0.00,0.00,0.00,0.00,0.00,0.00,0.00,0.00,0.00,0.00,0.00,0.00,0.00
0.00,0.00,0.00,0.00,0.00,0.00,0.00,0.00,0.00,0.00,0.00,0.00,0.00,0.00,0.00,0.00,0.00,0.00,0.00,0.00,0.00,0.00,0.00,0.00,0.00,0.00,0.00,0.00,0.00,1233.77,1265.36,1274.99,1268.37,1246.50,1219.80,1209.69,1213.46,1234.80,1265.07,1287.20,1289.16,1272.47,1258.26,1255.53,1257.20,1260.87,1265.76,1275.25,0.00,0.00,0.00,0.00,0.00,0.00,0.00,0.00,0.00,0.00,0.00,0.00,0.00,0.00,0.00,0.00,0.00,0.00,0.00,0.00,0.00,0.00,0.00,0.00,0.00,1391.84,1390.94,1390.01,1391.39,1393.42,1396.26,1397.98,1400.67,1401.36,1400.97,1401.09,1400.85,1402.74,1405.72,1406.39,1405.20,1403.43,1404.24,1403.18,1403.53,1406.70,1411.01,1409.62,1407.91,1403.44,1405.08,1405.04,1408.69,1406.81,1407.41,1407.46,1411.28,1411.03,1409.81,1407.71,1408.66,1410.13,1411.09,1411.25,1412.04,1413.51,1414.58,1412.73,1411.65,1409.96,1414.76,1415.14,1415.15,1413.47,1415.11,1417.07,1416.27,1415.60,1414.24,1415.09,1415.84,1417.75,1417.21,1417.51,1417.81,1418.89,1418.52,1417.23,1418.30,1418.49,1420.24,1420.56,1422.16,1421.06,1419.65,1420.29,1421.31,1421.54,1421.61,1422.38,1423.49,1422.54,1422.98,1423.33,1422.33,1421.76,1421.44,1424.44,1423.88,1423.16,1423.00,1424.46,1424.67,1423.30,1421.94,1423.17,1422.34,1423.97,1424.35,1425.30,1424.42,1424.11,1424.73,1425.65,1426.12,1427.24,1426.80,1426.05,1426.77,1428.09,1428.44,1427.12,1427.10,1427.49,1428.17,1428.61,1429.18,1428.74,1427.83,1427.98,1427.93,1428.93,1429.34,1430.47,1429.57,1428.99,1429.29,1430.80,1432.08,1432.50,1433.50,1433.68,1431.98,1431.45,1431.10,1432.96,1432.56,1434.59,1434.78,1434.74,1434.30,1434.73,1435.47,1435.60,1435.67,1436.59,1436.24,1436.64,1437.36,1440.07,1441.52,1440.44,1438.90,1437.80,1439.22,1439.22,1439.86,1438.31,1438.74,1438.81,1440.77,1441.28,1442.16,1441.28,1441.54,1442.52,1443.55,1443.30,1443.02,1444.19,1444.52,1444.49,1443.39,1444.26,1445.02,1445.98,1446.68,1447.94,1448.59,1448.76,1448.60,1447.77,1447.63,1446.57,1448.85,1449.87,1451.28,1449.96,1449.02,1448.97,1449.87,1450.75,1451.80,1452.11,1451.83,1452.13,1453.46,1454.83,1455.17,1455.17,1456.07,1455.29,1455.93,1456.44,1458.06,1457.32,1457.64,1457.16,1458.43,1458.09,1459.30,1459.42,1460.37,1459.95,1460.83,1461.19,1463.11,1462.06,1462.33,1460.86,1462.08,1462.07,1462.84,1464.06,1465.45,1465.16,1464.41,1462.81,1463.70,1464.15,1467.32,1467.49,1467.02,1466.20,1467.57,1468.86,1469.00,1470.08,1470.14,1471.33,1471.14,1470.76,1469.52,1469.04,1471.50,1473.67,1474.55,1474.11,1472.99,1474.43,1473.72,1475.09,1474.71,1475.18,1476.66,1477.08,1478.25,1478.35,1478.72,1479.64,1479.60,1478.57,1476.03,1474.99,1475.42,1476.94,1478.25,1480.91,1481.99,1480.76,1479.68,1481.40,1481.20,1481.56,1480.62,1482.15,1480.27,1477.28,1476.93,1479.45,1479.43,1477.49,1477.59,1481.66,1484.22,1484.47,1480.88,1477.78,1476.49,1476.30,1479.14,1479.18,1482.49,1477.97,0.00,0.00,0.00,0.00,0.00,0.00,0.00,0.00,0.00,0.00,0.00,0.00,0.00,0.00,0.00,0.00,0.00,0.00,0.00,0.00,0.00,0.00,0.00,0.00,0.00,0.00,0.00,0.00,0.00,0.00,0.00,0.00,0.00,0.00,0.00,0.00,0.00,0.00,0.00,0.00,0.00,0.00,0.00,0.00,0.00,0.00,0.00,0.00,0.00,0.00,0.00,0.00,0.00,0.00,0.00,0.00,0.00,0.00,0.00,0.00,0.00,0.00,0.00,0.00,0.00,0.00,0.00,0.00,0.00,0.00,0.00,0.00,0.00,0.00,0.00,0.00,0.00,0.00,0.00,0.00,0.00,0.00,0.00,0.00,0.00,0.00,0.00,0.00,0.00,0.00,0.00,0.00,0.00,0.00,0.00,0.00,0.00,0.00,0.00,0.00,0.00,0.00,0.00,0.00,0.00,0.00,0.00,0.00,0.00,0.00,0.00,0.00,0.00,0.00,0.00,0.00,0.00,0.00,0.00,0.00,0.00,0.00,0.00,0.00,0.00,0.00,0.00,0.00,0.00,0.00,0.00,0.00
0.00,0.00,0.00,0.00,0.00,0.00,0.00,0.00,0.00,0.00,0.00,0.00,0.00,0.00,0.00,0.00,0.00,0.00,0.00,0.00,0.00,0.00,0.00,0.00,0.00,0.00,0.00,0.00,0.00,0.00,1255.99,1270.87,1271.11,1263.05,1239.91,1221.42,1222.19,1242.12,1270.02,1286.12,1280.28,1262.32,1251.99,1255.74,1255.96,1258.31,1262.54,1269.44,1274.62,1281.15,0.00,0.00,0.00,0.00,0.00,0.00,0.00,0.00,0.00,0.00,0.00,0.00,0.00,0.00,0.00,0.00,0.00,0.00,0.00,0.00,0.00,0.00,0.00,0.00,1394.43,1393.95,1394.27,1396.91,1399.33,1401.76,1401.67,1401.49,1399.73,1399.67,1400.22,1402.61,1405.20,1404.80,1405.41,1404.99,1405.55,1404.07,1403.39,1405.67,1409.62,1409.65,1409.31,1405.12,1407.47,1406.37,1409.63,1407.32,1409.31,1409.25,1411.22,1409.74,1409.12,1407.95,1410.21,1410.80,1412.03,1410.46,1411.77,1412.79,1415.47,1414.48,1413.75,1412.21,1415.59,1417.35,1415.68,1413.83,1414.58,1417.24,1416.96,1416.30,1414.78,1414.76,1415.51,1417.43,1417.41,1417.61,1417.57,1420.03,1420.32,1419.55,1417.59,1416.59,1418.65,1420.33,1421.93,1420.82,1419.52,1420.43,1420.76,1421.23,1420.83,1422.37,1423.78,1423.64,1424.08,1423.83,1423.06,1421.86,1421.86,1425.40,1424.92,1423.82,1421.53,1423.44,1424.08,1424.36,1422.15,1423.73,1423.32,1425.52,1426.23,1427.47,1426.93,1425.62,1425.43,1425.69,1426.00,1427.39,1427.02,1426.84,1427.18,1428.15,1428.34,1426.68,1427.44,1427.97,1429.19,1430.04,1429.65,1429.76,1427.99,1428.77,1428.61,1430.22,1430.60,1431.88,1431.28,1431.77,1431.85,1433.64,1434.11,1434.14,1434.91,1435.59,1434.21,1432.65,1431.84,1433.81,1434.70,1435.26,1434.38,1434.16,1434.30,1434.92,1434.73,1436.04,1436.27,1437.88,1437.78,1438.17,1438.70,1440.41,1441.45,1439.87,1438.47,1438.05,1438.91,1439.34,1440.10,1439.36,1439.12,1438.69,1441.04,1441.41,1442.19,1442.01,1442.88,1444.93,1445.34,1444.81,1444.12,1444.77,1445.35,1444.73,1444.11,1444.28,1445.28,1446.05,1446.65,1446.79,1447.83,1448.73,1449.04,1447.43,1447.23,1447.31,1449.63,1450.55,1451.64,1450.70,1451.04,1450.20,1451.66,1452.03,1452.80,1452.78,1452.19,1453.41,1453.36,1454.67,1455.31,1456.64,1457.00,1456.62,1457.59,1458.49,1459.57,1459.02,1458.85,1458.89,1459.83,1460.19,1461.30,1460.67,1461.56,1460.48,1461.84,1462.44,1463.58,1462.54,1463.02,1463.52,1464.56,1464.10,1463.17,1463.38,1463.60,1463.69,1463.41,1463.98,1465.68,1465.83,1467.81,1467.41,1468.64,1467.38,1468.26,1468.94,1469.80,1471.60,1472.25,1473.05,1473.33,1472.45,1471.89,1470.77,1472.70,1474.47,1475.79,1475.19,1473.94,1475.66,1475.37,1476.22,1474.92,1475.59,1477.39,1479.66,1479.27,1478.51,1477.17,1479.11,1478.24,1477.36,1477.31,1477.66,1477.25,1475.94,1478.79,1481.54,1482.44,1481.04,1481.64,1484.36,1484.43,1483.90,1481.96,1483.12,1481.38,1479.24,1477.84,1480.68,1482.26,1481.65,1481.27,1484.78,1484.88,1484.54,1480.47,1480.30,1479.59,1480.00,1482.65,1481.44,0.00,0.00,0.00,0.00,0.00,0.00,0.00,0.00,0.00,0.00,0.00,0.00,0.00,0.00,0.00,0.00,0.00,0.00,0.00,0.00,0.00,0.00,0.00,0.00,0.00,0.00,0.00,0.00,0.00,0.00,0.00,0.00,0.00,0.00,0.00,0.00,0.00,0.00,0.00,0.00,0.00,0.00,0.00,0.00,0.00,0.00,0.00,0.00,0.00,0.00,0.00,0.00,0.00,0.00,0.00,0.00,0.00,0.00,0.00,0.00,0.00,0.00,0.00,0.00,0.00,0.00,0.00,0.00,0.00,0.00,0.00,0.00,0.00,0.00,0.00,0.00,0.00,0.00,0.00,0.00,0.00,0.00,0.00,0.00,0.00,0.00,0.00,0.00,0.00,0.00,0.00,0.00,0.00,0.00,0.00,0.00,0.00,0.00,0.00,0.00,0.00,0.00,0.00,0.00,0.00,0.00,0.00,0.00,0.00,0.00,0.00,0.00,0.00,0.00,0.00,0.00,0.00,0.00,0.00,0.00,0.00,0.00,0.00,0.00,0.00,0.00,0.00,0.00,0.00,0.00,0.00,0.00,0.00,0.00
0.00,0.00,0.00,0.00,0.00,0.00,0.00,0.00,0.00,0.00,0.00,0.00,0.00,0.00,0.00,0.00,0.00,0.00,0.00,0.00,0.00,0.00,0.00,0.00,0.00,0.00,0.00,0.00,0.00,0.00,0.00,1259.13,1271.77,1274.13,1261.18,1239.80,1235.31,1249.50,1271.53,1282.83,1275.65,1261.47,1258.83,1261.76,1260.31,1259.13,1263.06,1269.11,1273.08,1274.97,1278.75,1285.63,0.00,0.00,0.00,0.00,0.00,0.00,0.00,0.00,0.00,0.00,0.00,0.00,0.00,0.00,0.00,0.00,0.00,0.00,0.00,0.00,0.00,0.00,1396.63,1399.79,1400.55,1403.62,1403.69,1404.48,1404.05,1404.53,1403.73,1403.13,1404.09,1407.17,1406.81,1406.25,1406.85,1408.34,1408.42,1407.85,1407.41,1409.12,1411.30,1411.98,1411.56,1409.23,1411.66,1411.28,1412.35,1410.38,1411.36,1411.83,1413.64,1413.92,1413.48,1413.98,1414.61,1414.93,1413.58,1413.20,1413.70,1414.63,1416.59,1416.43,1415.12,1414.02,1416.18,1417.66,1416.09,1416.35,1418.55,1422.72,1422.30,1420.84,1417.92,1417.24,1419.06,1421.76,1422.92,1421.74,1421.10,1422.32,1423.32,1422.79,1420.73,1419.69,1421.71,1423.78,1424.24,1423.23,1423.09,1424.29,1424.31,1425.73,1424.98,1425.47,1424.07,1424.94,1424.83,1426.08,1425.46,1425.78,1425.12,1427.39,1426.70,1426.03,1424.92,1426.94,1428.21,1429.10,1427.98,1429.11,1427.95,1427.94,1428.46,1429.75,1430.30,1429.15,1428.85,1428.14,1427.90,1428.38,1430.12,1430.98,1431.96,1431.67,1430.66,1429.61,1430.25,1432.25,1432.59,1433.26,1433.12,1434.46,1433.81,1433.33,1432.91,1434.08,1434.65,1435.36,1434.50,1434.93,1434.34,1435.74,1437.24,1438.52,1439.32,1439.17,1438.51,1437.26,1437.04,1438.08,1438.78,1438.51,1438.34,1438.75,1438.86,1438.39,1437.97,1438.60,1438.82,1439.50,1439.86,1440.35,1441.43,1443.18,1444.01,1443.58,1441.98,1442.03,1441.98,1443.08,1444.34,1444.98,1444.23,1442.87,1444.03,1445.56,1445.45,1445.92,1446.55,1449.20,1448.58,1447.92,1447.53,1448.04,1449.10,1448.13,1447.85,1447.20,1448.74,1449.07,1450.13,1449.50,1450.96,1452.00,1452.75,1450.96,1451.02,1451.42,1453.56,1454.11,1455.18,1453.94,1455.29,1454.57,1456.26,1455.04,1455.65,1455.98,1455.87,1457.59,1457.78,1459.22,1458.63,1459.31,1459.76,1461.54,1462.19,1462.14,1461.84,1461.77,1462.26,1462.51,1463.81,1464.24,1464.54,1463.38,1463.78,1463.70,1465.87,1467.14,1468.04,1466.12,1466.47,1467.14,1468.55,1467.70,1466.60,1466.40,1466.79,1467.39,1467.70,1468.52,1469.35,1469.47,1470.59,1470.35,1472.11,1470.35,1471.12,1470.26,1472.87,1474.49,1475.36,1475.34,1475.73,1476.66,1477.04,1476.50,1477.44,1477.71,1478.48,1476.81,1476.00,1477.56,1478.78,1479.25,1478.03,1477.94,1480.16,1482.60,1483.41,1483.04,1481.48,1482.13,1480.84,1480.58,1481.59,1481.94,1481.50,1479.50,1481.69,1483.22,1484.71,1483.98,1486.46,1488.33,1488.29,1485.33,1483.74,1484.05,1484.04,1483.39,1482.96,1485.21,1485.64,1484.95,1485.98,1490.04,1490.69,1487.89,1483.13,1483.15,1482.96,1483.68,1486.33,1486.00,1483.35,1478.65,1476.53,1477.06,0.00,0.00,0.00,0.00,0.00,0.00,0.00,0.00,0.00,0.00,0.00,0.00,0.00,0.00,0.00,0.00,0.00,0.00,0.00,0.00,0.00,0.00,0.00,0.00,0.00,0.00,0.00,0.00,0.00,0.00,0.00,0.00,0.00,0.00,0.00,0.00,0.00,0.00,0.00,0.00,0.00,0.00,0.00,0.00,0.00,0.00,0.00,0.00,0.00,0.00,0.00,0.00,0.00,0.00,0.00,0.00,0.00,0.00,0.00,0.00,0.00,0.00,0.00,0.00,0.00,0.00,0.00,0.00,0.00,0.00,0.00,0.00,0.00,0.00,0.00,0.00,0.00,0.00,0.00,0.00,0.00,0.00,0.00,0.00,0.00,0.00,0.00,0.00,0.00,0.00,0.00,0.00,0.00,0.00,0.00,0.00,0.00,0.00,0.00,0.00,0.00,0.00,0.00,0.00,0.00,0.00,0.00,0.00,0.00,0.00,0.00,0.00,0.00,0.00,0.00,0.00,0.00,0.00,0.00,0.00,0.00,0.00,0.00,0.00,0.00,0.00,0.00,0.00,0.00,0.00
0.00,0.00,0.00,0.00,0.00,0.00,0.00,0.00,0.00,0.00,0.00,0.00,0.00,0.00,0.00,0.00,0.00,0.00,0.00,0.00,0.00,0.00,0.00,0.00,0.00,0.00,0.00,0.00,0.00,0.00,0.00,1238.18,1265.78,1276.35,1274.89,1259.51,1248.50,1259.30,1275.79,1281.79,1268.56,1258.93,1257.60,1261.62,1259.52,1259.78,1261.39,1265.60,1266.94,1270.47,1274.56,1284.14,1292.94,0.00,0.00,0.00,0.00,0.00,0.00,0.00,0.00,0.00,0.00,0.00,0.00,0.00,0.00,0.00,0.00,0.00,0.00,0.00,0.00,0.00,1395.52,1401.91,1402.94,1404.57,1404.59,1406.45,1406.06,1406.64,1406.17,1405.29,1404.77,1407.20,1407.21,1407.42,1407.61,1409.48,1409.79,1410.42,1409.99,1410.05,1409.64,1409.44,1411.33,1411.63,1413.75,1412.78,1413.93,1412.87,1412.95,1412.57,1412.40,1413.21,1412.90,1414.92,1415.79,1415.91,1414.64,1414.10,1416.09,1416.09,1416.18,1415.55,1416.04,1416.63,1416.52,1417.00,1416.74,1416.81,1418.00,1420.19,1421.35,1420.31,1420.01,1419.09,1421.63,1421.55,1422.11,1420.43,1420.61,1422.87,1424.20,1424.25,1421.50,1419.74,1421.50,1423.22,1423.56,1422.54,1423.38,1423.92,1423.24,1423.86,1424.04,1425.06,1424.90,1425.32,1425.06,1424.83,1425.87,1426.25,1426.68,1426.28,1426.25,1426.74,1426.23,1426.91,1426.61,1428.47,1428.36,1429.74,1428.64,1428.43,1428.54,1430.26,1430.43,1429.45,1428.86,1428.52,1428.35,1427.92,1429.95,1430.82,1431.70,1430.81,1430.83,1429.75,1430.87,1432.47,1433.30,1433.39,1433.13,1435.11,1435.05,1434.15,1433.14,1433.07,1434.61,1435.90,1436.57,1436.06,1435.02,1435.77,1437.00,1438.01,1439.07,1439.45,1439.05,1437.55,1437.28,1438.44,1438.81,1439.00,1437.92,1438.91,1438.81,1439.78,1439.26,1440.07,1440.40,1440.81,1441.58,1441.67,1442.83,1443.28,1443.58,1443.79,1443.18,1444.16,1443.26,1443.28,1443.68,1445.33,1445.10,1444.25,1444.73,1446.22,1445.76,1446.50,1447.45,1449.88,1448.61,1448.01,1447.36,1447.50,1448.53,1448.67,1449.34,1448.13,1448.43,1449.19,1450.35,1450.23,1450.41,1452.24,1452.82,1452.68,1452.55,1453.84,1454.75,1454.63,1454.27,1453.31,1454.68,1455.56,1457.00,1456.32,1457.06,1457.99,1458.02,1459.20,1458.74,1460.04,1459.30,1461.06,1461.62,1462.91,1463.25,1462.71,1462.28,1461.02,1461.20,1461.82,1462.78,1464.03,1463.51,1463.36,1462.60,1464.27,1466.22,1467.22,1466.71,1465.80,1466.65,1467.84,1469.24,1469.53,1468.39,1467.95,1468.00,1469.95,1470.09,1470.27,1470.09,1469.82,1470.13,1470.24,1472.07,1471.23,1471.44,1469.78,1472.43,1474.61,1476.24,1475.69,1474.61,1476.35,1477.39,1478.12,1478.22,1478.19,1478.78,1477.37,1476.44,1476.65,1479.81,1480.84,1479.83,1477.68,1478.76,1481.42,1482.72,1482.71,1482.05,1482.13,1481.83,1482.05,1483.12,1483.69,1483.01,1481.30,1481.05,1480.66,1481.66,1482.48,1484.65,1486.44,1485.89,1483.96,1481.93,1483.06,1483.01,1483.97,1486.08,1488.51,1488.53,1487.20,1489.04,1491.71,1490.52,1486.42,1483.85,1482.79,1483.65,1484.43,1487.27,1487.14,1482.17,1479.66,1479.33,0.00,0.00,0.00,0.00,0.00,0.00,0.00,0.00,0.00,0.00,0.00,0.00,0.00,0.00,0.00,0.00,0.00,0.00,0.00,0.00,0.00,0.00,0.00,0.00,0.00,0.00,0.00,0.00,0.00,0.00,0.00,0.00,0.00,0.00,0.00,0.00,0.00,0.00,0.00,0.00,0.00,0.00,0.00,0.00,0.00,0.00,0.00,0.00,0.00,0.00,0.00,0.00,0.00,0.00,0.00,0.00,0.00,0.00,0.00,0.00,0.00,0.00,0.00,0.00,0.00,0.00,0.00,0.00,0.00,0.00,0.00,0.00,0.00,0.00,0.00,0.00,0.00,0.00,0.00,0.00,0.00,0.00,0.00,0.00,0.00,0.00,0.00,0.00,0.00,0.00,0.00,0.00,0.00,0.00,0.00,0.00,0.00,0.00,0.00,0.00,0.00,0.00,0.00,0.00,0.00,0.00,0.00,0.00,0.00,0.00,0.00,0.00,0.00,0.00,0.00,0.00,0.00,0.00,0.00,0.00,0.00,0.00,0.00,0.00,0.00,0.00,0.00,0.00,0.00,0.00,0.00
0.00,0.00,0.00,0.00,0.00,0.00,0.00,0.00,0.00,0.00,0.00,0.00,0.00,0.00,0.00,0.00,0.00,0.00,0.00,0.00,0.00,0.00,0.00,0.00,0.00,0.00,0.00,0.00,0.00,0.00,0.00,0.00,1253.98,1280.90,1286.01,1280.03,1272.97,1276.39,1283.75,1281.87,1268.48,1258.54,1258.91,1259.98,1260.89,1261.37,1262.32,1267.11,1270.42,1278.65,1283.91,1294.32,1298.39,0.00,0.00,0.00,0.00,0.00,0.00,0.00,0.00,0.00,0.00,0.00,0.00,0.00,0.00,0.00,0.00,0.00,0.00,0.00,0.00,1390.35,1397.36,1403.82,1406.40,1408.15,1406.95,1407.24,1408.61,1410.41,1410.85,1409.83,1409.90,1412.67,1411.77,1411.82,1409.79,1411.10,1412.34,1414.73,1414.16,1414.22,1411.75,1412.09,1412.95,1415.56,1416.97,1417.00,1417.73,1417.62,1416.87,1416.50,1416.12,1418.32,1417.98,1420.55,1419.31,1419.53,1417.18,1417.47,1418.98,1420.21,1419.92,1418.74,1419.55,1419.79,1420.02,1418.61,1418.92,1419.24,1421.05,1422.42,1423.24,1421.68,1422.50,1423.08,1426.06,1425.23,1424.11,1422.59,1423.66,1426.01,1428.38,1428.39,1426.85,1424.99,1425.66,1426.92,1426.46,1426.27,1426.73,1427.83,1427.43,1427.01,1426.24,1426.72,1428.09,1429.49,1429.63,1429.00,1429.40,1430.54,1430.95,1430.00,1428.70,1429.77,1430.94,1431.63,1430.55,1431.48,1431.74,1433.56,1432.78,1432.80,1432.14,1432.88,1432.13,1431.86,1432.03,1433.00,1433.70,1432.57,1433.71,1433.46,1434.03,1433.04,1433.21,1432.56,1433.41,1435.05,1436.15,1436.21,1436.57,1437.70,1438.56,1437.60,1437.78,1437.59,1438.80,1439.91,1439.71,1438.51,1437.95,1439.48,1441.75,1442.88,1442.59,1442.47,1441.92,1441.22,1440.59,1440.97,1440.27,1441.45,1441.71,1443.51,1442.45,1442.18,1442.86,1443.06,1443.53,1443.12,1444.46,1444.91,1445.54,1446.79,1447.17,1448.18,1447.11,1448.18,1446.95,1447.18,1446.98,1448.44,1448.64,1448.13,1448.69,1450.07,1450.62,1450.14,1450.46,1451.47,1450.99,1451.37,1451.33,1452.38,1452.40,1452.26,1452.36,1452.37,1452.78,1454.02,1454.86,1455.95,1455.02,1456.82,1457.19,1458.56,1458.03,1458.29,1458.23,1457.57,1458.23,1458.05,1458.84,1459.43,1460.53,1460.82,1461.40,1461.14,1460.84,1461.76,1462.60,1463.78,1463.16,1464.89,1465.34,1466.45,1465.66,1465.38,1464.98,1465.39,1465.34,1465.46,1465.56,1467.34,1466.91,1467.09,1467.03,1469.21,1470.40,1470.56,1469.89,1469.33,1469.65,1471.11,1472.51,1473.03,1471.99,1472.02,1472.40,1474.12,1474.25,1474.05,1473.59,1473.98,1474.21,1474.81,1476.78,1476.39,1475.85,1474.49,1476.80,1479.22,1479.66,1478.73,1476.89,1478.98,1480.31,1482.50,1481.77,1482.56,1481.97,1481.92,1481.53,1481.13,1484.05,1483.81,1484.05,1480.51,1481.49,1482.61,1484.79,1485.48,1485.83,1486.11,1486.69,1486.69,1485.82,1485.29,1484.99,1484.94,1484.14,1483.50,1483.90,1484.55,1486.26,1488.18,1488.83,1486.89,1484.95,1485.26,1487.31,1489.15,1491.53,1492.82,1492.38,1491.84,1495.33,1497.50,1496.26,1490.66,1489.18,1487.60,1487.48,1487.84,1490.54,1492.33,1487.90,1485.95,1486.44,1489.40,1489.41,1486.09,0.00,0.00,0.00,0.00,0.00,0.00,0.00,0.00,0.00,0.00,0.00,0.00,0.00,0.00,0.00,0.00,0.00,0.00,0.00,0.00,0.00,0.00,0.00,0.00,0.00,0.00,0.00,0.00,0.00,0.00,0.00,0.00,0.00,0.00,0.00,0.00,0.00,0.00,0.00,0.00,0.00,0.00,0.00,0.00,0.00,0.00,0.00,0.00,0.00,0.00,0.00,0.00,0.00,0.00,0.00,0.00,0.00,0.00,0.00,0.00,0.00,0.00,0.00,0.00,0.00,0.00,0.00,0.00,0.00,0.00,0.00,0.00,0.00,0.00,0.00,0.00,0.00,0.00,0.00,0.00,0.00,0.00,0.00,0.00,0.00,0.00,0.00,0.00,0.00,0.00,0.00,0.00,0.00,0.00,0.00,0.00,0.00,0.00,0.00,0.00,0.00,0.00,0.00,0.00,0.00,0.00,0.00,0.00,0.00,0.00,0.00,0.00,0.00,0.00,0.00,0.00,0.00,0.00,0.00,0.00,0.00,0.00,0.00,0.00,0.00,0.00,0.00,0.00
0.00,0.00,0.00,0.00,0.00,0.00,0.00,0.00,0.00,0.00,0.00,0.00,0.00,0.00,0.00,0.00,0.00,0.00,0.00,0.00,0.00,0.00,0.00,0.00,0.00,0.00,0.00,0.00,0.00,0.00,0.00,0.00,0.00,1280.46,1284.07,1284.00,1282.73,1287.59,1288.60,1283.47,1270.39,1258.96,1254.17,1254.62,1257.53,1260.12,1262.11,1269.33,1276.35,1293.61,1303.33,1304.81,1298.99,1295.16,0.00,0.00,0.00,0.00,0.00,0.00,0.00,0.00,0.00,0.00,0.00,0.00,0.00,0.00,0.00,0.00,0.00,0.00,0.00,1390.64,1399.41,1404.43,1407.76,1407.82,1407.42,1408.00,1408.57,1409.36,1409.17,1409.45,1410.09,1412.51,1412.29,1413.38,1410.83,1411.79,1411.59,1413.89,1413.67,1415.16,1413.97,1414.65,1414.48,1416.48,1416.32,1417.65,1420.02,1421.23,1419.80,1416.59,1415.30,1416.63,1418.26,1421.27,1420.42,1420.58,1418.96,1419.91,1421.12,1422.31,1421.63,1420.73,1420.66,1420.63,1419.96,1418.38,1419.97,1420.18,1422.02,1421.38,1423.00,1422.51,1424.29,1424.94,1425.81,1425.02,1422.38,1423.02,1423.31,1427.06,1428.02,1428.44,1427.23,1425.94,1426.79,1427.21,1426.97,1426.07,1426.68,1428.24,1429.20,1428.10,1427.36,1427.05,1429.50,1430.78,1431.51,1429.31,1429.46,1430.66,1432.66,1431.74,1429.55,1430.29,1430.95,1432.17,1430.75,1431.90,1432.21,1433.96,1432.86,1433.22,1433.26,1435.20,1434.28,1433.36,1432.77,1433.31,1434.27,1433.57,1434.29,1433.50,1433.53,1433.33,1434.45,1433.79,1434.57,1435.16,1435.66,1435.88,1436.44,1438.11,1439.56,1440.01,1440.39,1438.96,1438.94,1439.88,1439.61,1439.17,1438.60,1440.09,1441.42,1441.88,1441.73,1441.93,1441.58,1441.08,1440.43,1441.57,1440.81,1442.30,1442.31,1444.60,1443.08,1443.15,1443.96,1444.70,1445.23,1444.78,1445.67,1445.26,1446.24,1448.04,1449.48,1449.51,1448.15,1448.37,1447.59,1447.93,1448.17,1449.27,1450.09,1450.19,1451.14,1451.01,1452.04,1450.95,1452.05,1451.95,1452.21,1452.07,1452.68,1453.60,1453.82,1452.57,1452.48,1452.15,1453.31,1454.16,1454.83,1455.91,1454.51,1456.65,1457.11,1459.69,1458.54,1458.79,1458.78,1458.92,1459.95,1460.19,1460.25,1459.98,1461.69,1463.29,1463.66,1462.43,1462.33,1463.07,1463.37,1464.18,1464.66,1465.61,1464.55,1464.37,1464.09,1465.12,1466.52,1468.19,1467.09,1466.89,1466.04,1468.95,1468.13,1468.83,1467.71,1469.06,1470.08,1471.39,1470.85,1470.07,1468.47,1470.45,1471.68,1473.23,1472.21,1472.27,1472.36,1473.89,1473.97,1474.07,1473.49,1474.81,1475.41,1476.62,1477.74,1478.17,1477.08,1476.39,1477.69,1480.48,1480.71,1479.47,1477.57,1478.37,1479.61,1481.09,1481.15,1481.62,1481.74,1483.05,1483.28,1482.41,1483.05,1483.19,1482.95,1480.89,1481.71,1483.45,1484.37,1484.76,1484.24,1485.63,1486.75,1488.52,1487.89,1487.06,1485.75,1486.45,1486.40,1486.57,1486.30,1487.34,1488.53,1489.66,1489.95,1488.71,1488.42,1489.26,1490.70,1490.34,1491.38,1492.01,1492.50,1492.32,1495.54,1495.77,1494.06,1487.86,1488.09,1487.29,1489.52,1490.12,1492.49,1492.08,1488.74,1487.51,1488.87,1491.19,1491.28,0.00,0.00,0.00,0.00,0.00,0.00,0.00,0.00,0.00,0.00,0.00,0.00,0.00,0.00,0.00,0.00,0.00,0.00,0.00,0.00,0.00,0.00,0.00,0.00,0.00,0.00,0.00,0.00,0.00,0.00,0.00,0.00,0.00,0.00,0.00,0.00,0.00,0.00,0.00,0.00,0.00,0.00,0.00,0.00,0.00,0.00,0.00,0.00,0.00,0.00,0.00,0.00,0.00,0.00,0.00,0.00,0.00,0.00,0.00,0.00,0.00,0.00,0.00,0.00,0.00,0.00,0.00,0.00,0.00,0.00,0.00,0.00,0.00,0.00,0.00,0.00,0.00,0.00,0.00,0.00,0.00,0.00,0.00,0.00,0.00,0.00,0.00,0.00,0.00,0.00,0.00,0.00,0.00,0.00,0.00,0.00,0.00,0.00,0.00,0.00,0.00,0.00,0.00,0.00,0.00,0.00,0.00,0.00,0.00,0.00,0.00,0.00,0.00,0.00,0.00,0.00,0.00,0.00,0.00,0.00,0.00,0.00,0.00,0.00,0.00,0.00,0.00,0.00,0.00
0.00,0.00,0.00,0.00,0.00,0.00,0.00,0.00,0.00,0.00,0.00,0.00,0.00,0.00,0.00,0.00,0.00,0.00,0.00,0.00,0.00,0.00,0.00,0.00,0.00,0.00,0.00,0.00,0.00,0.00,0.00,0.00,0.00,1251.34,1278.39,1284.37,1290.67,1294.28,1288.80,1278.64,1268.87,1258.03,1256.36,1255.75,1258.98,1260.62,1264.53,1275.79,1294.31,1340.74,1343.82,1317.67,1302.00,1291.06,1290.20,0.00,0.00,1295.76,1299.30,1299.26,1292.85,1292.29,1293.80,1298.79,1301.26,1301.10,0.00,0.00,0.00,0.00,0.00,0.00,0.00,1394.78,1403.59,1407.61,1410.45,1410.74,1410.97,1411.57,1410.79,1410.62,1410.21,1411.71,1413.01,1415.50,1414.31,1414.77,1413.03,1414.06,1414.41,1416.93,1417.53,1419.12,1419.59,1421.59,1420.40,1421.23,1420.14,1421.91,1422.71,1424.01,1422.61,1420.04,1419.21,1420.27,1421.74,1423.05,1421.83,1422.51,1422.26,1424.33,1423.89,1425.05,1424.92,1425.28,1423.75,1423.88,1423.42,1423.16,1424.34,1425.09,1426.77,1426.15,1426.90,1426.51,1427.12,1427.68,1427.54,1427.94,1426.10,1427.56,1427.84,1430.60,1431.73,1431.66,1431.14,1429.75,1429.80,1430.79,1430.63,1430.51,1429.73,1430.68,1431.69,1432.45,1432.07,1431.39,1432.35,1434.24,1434.88,1432.51,1431.15,1432.15,1434.31,1435.48,1434.09,1433.73,1433.46,1434.84,1435.13,1435.65,1436.27,1436.83,1436.19,1435.83,1436.10,1437.24,1436.32,1435.92,1435.96,1437.45,1438.36,1437.94,1437.83,1436.63,1437.02,1437.02,1437.83,1437.53,1438.24,1439.38,1440.10,1440.22,1440.33,1440.61,1442.81,1443.54,1445.28,1443.27,1443.02,1442.14,1441.76,1442.14,1443.24,1444.36,1445.26,1444.89,1444.97,1443.82,1443.68,1443.21,1443.41,1445.13,1445.25,1445.90,1445.64,1447.68,1447.45,1447.51,1448.03,1449.09,1449.46,1448.96,1448.21,1448.05,1448.85,1450.87,1452.64,1452.14,1451.73,1450.83,1451.11,1451.17,1451.58,1452.08,1452.82,1452.99,1454.48,1454.14,1455.38,1454.13,1455.01,1455.00,1454.68,1454.79,1455.67,1456.96,1457.65,1455.63,1456.35,1456.51,1458.33,1457.97,1457.93,1458.43,1458.64,1460.12,1461.20,1463.24,1462.15,1462.21,1462.35,1462.36,1463.34,1463.26,1463.94,1462.44,1464.59,1466.17,1466.94,1464.76,1464.90,1465.34,1465.60,1466.94,1468.15,1468.71,1466.63,1467.06,1466.20,1467.84,1469.19,1471.92,1470.30,1470.13,1470.93,1473.32,1472.52,1472.36,1472.33,1473.00,1474.28,1476.05,1475.71,1474.30,1472.78,1475.30,1476.06,1476.88,1474.82,1475.52,1475.38,1476.91,1477.00,1478.52,1478.53,1479.22,1479.79,1480.41,1481.26,1480.61,1480.64,1481.37,1482.71,1484.69,1485.09,1484.56,1483.85,1482.57,1483.93,1484.84,1485.70,1484.64,1484.46,1485.89,1487.22,1487.21,1486.77,1486.16,1486.13,1485.71,1487.96,1489.04,1489.49,1486.99,1486.01,1487.34,1488.95,1490.46,1491.21,1491.17,1490.29,1489.16,1490.05,1491.86,1493.18,1493.39,1493.40,1493.65,1493.88,1492.53,1493.92,1495.11,1497.38,1496.14,1495.57,1494.54,1495.63,1496.99,1498.71,1497.99,1495.29,1491.44,1489.85,1491.18,1493.92,1495.06,1495.63,1493.54,1491.96,1492.56,1493.68,1494.53,1494.73,1491.87,0.00,0.00,0.00,0.00,0.00,0.00,0.00,0.00,0.00,0.00,0.00,0.00,0.00,0.00,0.00,0.00,0.00,0.00,0.00,0.00,0.00,0.00,0.00,0.00,0.00,0.00,0.00,0.00,0.00,0.00,0.00,0.00,0.00,0.00,0.00,0.00,0.00,0.00,0.00,0.00,0.00,0.00,0.00,0.00,0.00,0.00,0.00,0.00,0.00,0.00,0.00,0.00,0.00,0.00,0.00,0.00,0.00,0.00,0.00,0.00,0.00,0.00,0.00,0.00,0.00,0.00,0.00,0.00,0.00,0.00,0.00,0.00,0.00,0.00,0.00,0.00,0.00,0.00,0.00,0.00,0.00,0.00,0.00,0.00,0.00,0.00,0.00,0.00,0.00,0.00,0.00,0.00,0.00,0.00,0.00,0.00,0.00,0.00,0.00,0.00,0.00,0.00,0.00,0.00,0.00,0.00,0.00,0.00,0.00,0.00,0.00,0.00,0.00,0.00,0.00,0.00,0.00,0.00,0.00,0.00,0.00,0.00,0.00,0.00,0.00,0.00,0.00,0.00
0.00,0.00,0.00,0.00,0.00,0.00,0.00,0.00,0.00,0.00,0.00,0.00,0.00,0.00,0.00,0.00,0.00,0.00,0.00,0.00,0.00,0.00,0.00,0.00,0.00,0.00,0.00,0.00,0.00,0.00,0.00,0.00,0.00,0.00,1260.50,1285.56,1297.65,1299.94,1291.77,1278.79,1264.90,1256.73,1256.98,1259.33,1257.26,1257.98,1261.38,1273.11,1293.71,1359.97,1362.63,1331.31,1302.28,1286.55,1287.99,0.00,1288.54,1286.61,1294.18,1295.74,1291.74,1290.37,1290.92,1295.13,1292.76,1293.73,1293.21,1308.87,0.00,0.00,0.00,0.00,0.00,1403.15,1405.48,1407.01,1409.32,1409.69,1412.12,1414.86,1414.40,1413.56,1412.38,1414.30,1413.86,1413.84,1413.84,1415.73,1416.10,1416.06,1415.24,1416.76,1418.08,1418.95,1418.71,1420.03,1420.65,1421.74,1420.56,1420.90,1421.45,1423.66,1423.95,1422.65,1421.91,1421.77,1422.10,1422.37,1422.14,1423.50,1423.94,1424.77,1425.19,1426.48,1427.20,1426.89,1424.88,1424.57,1424.72,1425.78,1427.34,1426.72,1427.34,1427.33,1428.66,1428.64,1428.21,1427.62,1427.50,1428.07,1427.38,1429.61,1430.28,1432.55,1431.52,1430.90,1430.05,1429.91,1430.55,1431.59,1432.08,1431.35,1430.70,1431.13,1432.65,1434.18,1433.96,1433.12,1433.20,1434.12,1434.41,1432.40,1431.67,1432.89,1434.45,1435.45,1434.44,1434.22,1433.29,1434.79,1435.92,1437.04,1437.76,1436.58,1435.45,1435.42,1436.44,1437.52,1436.08,1437.22,1438.06,1438.41,1437.34,1437.12,1437.45,1437.24,1437.57,1437.78,1438.44,1438.25,1439.63,1440.33,1440.60,1440.66,1440.45,1440.72,1442.18,1443.32,1444.42,1443.12,1443.08,1441.49,1441.10,1441.84,1443.84,1444.59,1444.38,1444.28,1444.89,1444.96,1444.91,1444.31,1444.83,1446.31,1447.61,1447.10,1446.68,1447.38,1447.69,1448.33,1448.74,1450.65,1450.81,1450.17,1449.31,1449.62,1450.62,1451.48,1452.13,1452.27,1451.94,1451.42,1451.60,1451.51,1451.69,1451.65,1452.38,1453.47,1455.19,1455.38,1455.32,1455.02,1456.28,1457.27,1456.32,1455.49,1455.64,1456.99,1458.36,1457.01,1457.14,1457.16,1459.07,1459.34,1459.58,1459.21,1459.99,1460.34,1461.36,1462.08,1461.46,1462.03,1462.72,1463.37,1463.12,1462.18,1462.58,1462.53,1464.28,1465.88,1466.28,1465.72,1466.03,1466.83,1466.74,1468.02,1468.90,1469.67,1467.78,1467.36,1466.83,1468.18,1469.77,1471.12,1470.43,1470.67,1471.76,1472.81,1472.56,1473.03,1472.63,1472.66,1474.52,1477.07,1477.03,1474.78,1473.54,1475.49,1476.65,1477.68,1475.22,1475.53,1475.62,1478.32,1479.12,1480.73,1479.46,1479.18,1478.88,1480.59,1480.87,1481.42,1482.24,1482.81,1483.49,1484.16,1485.78,1485.77,1485.57,1484.37,1485.15,1486.18,1487.12,1485.48,1485.04,1485.93,1487.62,1488.43,1487.90,1488.12,1488.09,1488.00,1488.68,1488.81,1489.31,1487.53,1487.60,1489.04,1490.12,1491.55,1493.85,1494.83,1493.40,1491.25,1490.77,1492.57,1493.19,1495.05,1495.73,1496.09,1494.43,1493.46,1494.73,1497.33,1497.89,1497.77,1497.09,1495.99,1496.68,1497.20,1497.22,1495.61,1494.08,1492.36,1490.14,1489.68,1491.84,1493.36,1494.10,1494.28,1495.14,1494.14,1493.67,1493.33,1494.09,1489.96,0.00,0.00,0.00,0.00,0.00,0.00,0.00,0.00,0.00,0.00,0.00,0.00,0.00,0.00,0.00,0.00,0.00,0.00,0.00,0.00,0.00,0.00,0.00,0.00,0.00,0.00,0.00,0.00,0.00,0.00,0.00,0.00,0.00,0.00,0.00,0.00,0.00,0.00,0.00,0.00,0.00,0.00,0.00,0.00,0.00,0.00,0.00,0.00,0.00,0.00,0.00,0.00,0.00,0.00,0.00,0.00,0.00,0.00,0.00,0.00,0.00,0.00,0.00,0.00,0.00,0.00,0.00,0.00,0.00,0.00,0.00,0.00,0.00,0.00,0.00,0.00,0.00,0.00,0.00,0.00,0.00,0.00,0.00,0.00,0.00,0.00,0.00,0.00,0.00,0.00,0.00,0.00,0.00,0.00,0.00,0.00,0.00,0.00,0.00,0.00,0.00,0.00,0.00,0.00,0.00,0.00,0.00,0.00,0.00,0.00,0.00,0.00,0.00,0.00,0.00,0.00,0.00,0.00,0.00,0.00,0.00,0.00,0.00,0.00,0.00,0.00,0.00,0.00
0.00,0.00,0.00,0.00,0.00,0.00,0.00,0.00,0.00,0.00,0.00,0.00,0.00,0.00,0.00,0.00,0.00,0.00,0.00,0.00,0.00,0.00,0.00,0.00,0.00,0.00,0.00,0.00,0.00,0.00,0.00,0.00,0.00,0.00,1218.51,1283.33,1302.88,1306.75,1296.88,1279.92,1262.25,1253.18,1257.16,1258.33,1256.48,1254.15,1257.57,1266.00,1280.76,1328.62,1352.63,1328.77,1303.88,1288.31,1288.11,1289.08,1285.60,1285.39,1291.45,1296.13,1293.39,1290.84,1289.15,1291.07,1290.46,1292.69,1296.93,1307.50,1317.78,1328.00,1348.20,0.00,0.00,1410.74,1408.75,1410.33,1413.90,1416.12,1417.11,1417.56,1416.58,1416.41,1416.94,1417.90,1415.83,1413.87,1415.42,1418.83,1419.28,1418.26,1417.25,1419.14,1421.21,1421.63,1421.14,1421.40,1422.44,1422.07,1422.23,1421.46,1422.31,1423.64,1425.22,1425.99,1426.35,1426.38,1425.34,1423.67,1424.23,1425.74,1427.64,1427.30,1428.11,1429.26,1430.68,1429.98,1428.59,1429.12,1430.43,1432.69,1432.72,1431.61,1430.45,1431.47,1431.91,1431.57,1430.85,1430.89,1431.79,1432.10,1432.04,1432.60,1433.41,1434.46,1434.51,1434.31,1433.49,1433.44,1433.43,1434.92,1436.08,1436.42,1436.21,1435.86,1437.49,1438.86,1438.17,1437.22,1436.91,1437.81,1437.51,1437.33,1437.05,1436.83,1436.16,1436.66,1437.20,1437.93,1437.59,1438.73,1439.64,1440.32,1441.28,1440.20,1439.40,1437.98,1438.18,1438.34,1438.03,1440.02,1441.22,1442.60,1442.02,1442.17,1441.91,1441.20,1442.03,1441.95,1443.17,1442.87,1443.99,1443.90,1444.03,1443.87,1443.86,1443.52,1444.19,1444.15,1445.58,1445.90,1447.27,1445.73,1445.76,1445.97,1448.61,1448.75,1447.80,1447.00,1447.64,1449.18,1449.51,1448.94,1449.08,1449.67,1451.06,1449.70,1449.35,1449.65,1451.10,1452.26,1452.78,1453.75,1453.23,1453.44,1453.20,1454.82,1454.84,1455.70,1454.48,1455.03,1454.33,1454.77,1454.90,1455.51,1456.19,1456.26,1456.36,1456.50,1457.77,1458.74,1458.71,1458.84,1459.21,1460.51,1459.83,1459.48,1458.87,1459.96,1462.14,1462.71,1463.00,1462.90,1463.46,1463.96,1463.46,1462.21,1463.02,1463.18,1464.36,1464.86,1464.87,1465.77,1465.79,1466.18,1465.59,1464.89,1465.71,1467.15,1468.83,1469.90,1470.02,1469.64,1469.40,1469.62,1469.98,1471.03,1471.48,1472.14,1471.70,1470.47,1469.95,1470.81,1473.60,1474.30,1474.14,1473.37,1474.71,1474.27,1474.50,1475.57,1477.64,1478.47,1479.04,1479.24,1479.23,1478.15,1479.25,1480.55,1481.05,1480.46,1478.22,1478.30,1478.52,1480.65,1481.91,1484.24,1483.76,1483.37,1482.23,1483.72,1483.84,1484.58,1486.49,1487.41,1487.38,1487.30,1489.54,1491.12,1491.22,1489.64,1490.24,1490.30,1490.82,1490.61,1491.48,1491.88,1493.23,1493.70,1494.57,1493.58,1494.31,1493.78,1494.45,1493.59,1494.56,1493.24,1493.91,1493.87,1494.52,1495.01,1497.83,1499.56,1499.40,1496.26,1494.06,1494.06,1493.68,1495.85,1497.66,1499.75,1499.22,1496.94,1496.46,1496.99,1499.81,1501.90,1502.16,1500.54,1500.29,1500.17,1500.17,1499.52,1499.03,1498.46,1495.55,1495.50,1495.83,1495.85,1496.36,1498.76,1500.35,1500.78,1498.04,1497.73,1496.20,1490.96,1491.32,0.00,0.00,0.00,0.00,0.00,0.00,0.00,0.00,0.00,0.00,0.00,0.00,0.00,0.00,0.00,0.00,0.00,0.00,0.00,0.00,0.00,0.00,0.00,0.00,0.00,0.00,0.00,0.00,0.00,0.00,0.00,0.00,0.00,0.00,0.00,0.00,0.00,0.00,0.00,0.00,0.00,0.00,0.00,0.00,0.00,0.00,0.00,0.00,0.00,0.00,0.00,0.00,0.00,0.00,0.00,0.00,0.00,0.00,0.00,0.00,0.00,0.00,0.00,0.00,0.00,0.00,0.00,0.00,0.00,0.00,0.00,0.00,0.00,0.00,0.00,0.00,0.00,0.00,0.00,0.00,0.00,0.00,0.00,0.00,0.00,0.00,0.00,0.00,0.00,0.00,0.00,0.00,0.00,0.00,0.00,0.00,0.00,0.00,0.00,0.00,0.00,0.00,0.00,0.00,0.00,0.00,0.00,0.00,0.00,0.00,0.00,0.00,0.00,0.00,0.00,0.00,0.00,0.00,0.00,0.00,0.00,0.00,0.00,0.00,0.00,0.00,0.00
0.00,0.00,0.00,0.00,0.00,0.00,0.00,0.00,0.00,0.00,0.00,0.00,0.00,0.00,0.00,0.00,0.00,0.00,0.00,0.00,0.00,0.00,0.00,0.00,0.00,0.00,0.00,0.00,0.00,0.00,0.00,0.00,0.00,0.00,0.00,1249.77,1293.36,1303.70,1300.05,1287.96,1268.18,1260.36,1259.14,1257.22,1252.13,1250.56,1253.30,1260.61,1271.00,1288.07,1309.30,1309.26,1300.39,1290.04,1286.29,1286.36,1285.22,1283.57,1288.45,1292.10,1292.08,1289.74,1288.09,1287.75,1287.81,1290.51,1296.95,1308.19,1318.25,1329.07,1337.35,1356.38,1386.59,1404.45,1408.36,1408.97,1414.41,1417.45,1418.89,1417.20,1416.52,1416.51,1418.30,1418.89,1417.81,1414.96,1417.14,1419.37,1419.61,1418.01,1417.02,1417.59,1419.69,1420.91,1421.67,1420.79,1422.07,1422.17,1422.77,1421.80,1421.94,1423.64,1425.42,1426.80,1427.05,1427.68,1427.40,1426.85,1426.92,1428.16,1429.56,1429.04,1429.35,1430.17,1431.28,1429.60,1428.75,1429.75,1431.04,1432.48,1432.58,1433.13,1431.58,1431.51,1432.22,1432.57,1432.03,1431.44,1431.68,1432.92,1432.34,1432.57,1432.60,1434.37,1434.47,1434.44,1433.34,1434.27,1435.22,1436.17,1436.97,1436.27,1436.92,1437.39,1438.82,1439.57,1438.73,1438.82,1438.10,1438.26,1437.71,1438.32,1438.73,1439.62,1439.76,1440.26,1439.41,1439.73,1439.05,1439.85,1439.73,1440.46,1441.59,1440.93,1440.45,1439.61,1440.57,1440.59,1440.64,1441.86,1442.11,1442.87,1442.22,1443.30,1442.63,1442.24,1443.02,1444.12,1445.96,1445.35,1444.84,1443.61,1443.74,1444.39,1444.78,1444.62,1444.69,1444.19,1445.26,1446.46,1447.55,1446.67,1446.60,1447.07,1448.56,1448.56,1447.88,1447.56,1447.93,1450.80,1451.45,1451.83,1451.20,1451.74,1452.13,1450.83,1450.68,1450.63,1451.92,1452.32,1453.54,1454.14,1453.66,1453.39,1453.42,1455.31,1455.31,1455.98,1454.45,1455.65,1454.64,1455.34,1455.51,1457.54,1457.69,1457.72,1457.83,1458.61,1459.30,1460.06,1460.31,1461.19,1461.21,1462.03,1461.77,1461.20,1460.24,1460.97,1462.98,1464.50,1463.24,1463.02,1463.02,1464.19,1464.09,1463.19,1463.88,1464.00,1465.01,1465.28,1465.51,1465.97,1465.94,1466.60,1466.33,1466.02,1466.24,1468.41,1469.50,1470.69,1470.43,1471.72,1471.48,1472.17,1471.90,1473.28,1472.62,1473.47,1472.71,1471.93,1471.48,1472.05,1474.94,1475.39,1476.04,1474.78,1475.48,1474.84,1475.98,1477.01,1478.46,1478.65,1478.70,1478.98,1479.22,1479.12,1480.31,1480.48,1480.95,1480.94,1479.75,1479.21,1479.55,1481.45,1482.70,1484.54,1483.55,1484.40,1483.57,1485.98,1485.62,1487.10,1488.18,1488.81,1487.57,1487.62,1488.46,1489.92,1490.16,1491.11,1491.70,1491.35,1491.15,1491.62,1493.10,1493.32,1493.88,1493.91,1494.76,1494.03,1495.39,1495.04,1495.16,1493.81,1494.36,1495.59,1497.17,1497.74,1497.15,1497.19,1497.94,1499.41,1498.72,1498.62,1496.16,1495.20,1492.72,1495.57,1498.16,1499.84,1498.84,1496.90,1496.64,1496.98,1499.36,1501.29,1502.10,1502.39,1502.37,1500.53,1499.58,1499.27,1498.48,1496.91,1495.67,1497.42,1498.22,1496.61,1497.03,1499.67,1501.64,1500.05,1496.79,1496.03,1495.10,1492.83,1492.57,0.00,0.00,0.00,0.00,0.00,0.00,0.00,0.00,0.00,0.00,0.00,0.00,0.00,0.00,0.00,0.00,0.00,0.00,0.00,0.00,0.00,0.00,0.00,0.00,0.00,0.00,0.00,0.00,0.00,0.00,0.00,0.00,0.00,0.00,0.00,0.00,0.00,0.00,0.00,0.00,0.00,0.00,0.00,0.00,0.00,0.00,0.00,0.00,0.00,0.00,0.00,0.00,0.00,0.00,0.00,0.00,0.00,0.00,0.00,0.00,0.00,0.00,0.00,0.00,0.00,0.00,0.00,0.00,0.00,0.00,0.00,0.00,0.00,0.00,0.00,0.00,0.00,0.00,0.00,0.00,0.00,0.00,0.00,0.00,0.00,0.00,0.00,0.00,0.00,0.00,0.00,0.00,0.00,0.00,0.00,0.00,0.00,0.00,0.00,0.00,0.00,0.00,0.00,0.00,0.00,0.00,0.00,0.00,0.00,0.00,0.00,0.00,0.00,0.00,0.00,0.00,0.00,0.00,0.00,0.00,0.00,0.00,0.00,0.00,0.00,0.00,0.00
0.00,0.00,0.00,0.00,0.00,0.00,0.00,0.00,0.00,0.00,0.00,0.00,0.00,0.00,0.00,0.00,0.00,0.00,0.00,0.00,0.00,0.00,0.00,0.00,0.00,0.00,0.00,0.00,0.00,0.00,0.00,0.00,0.00,0.00,0.00,0.00,1258.01,1295.76,1301.59,1296.12,1279.21,1269.79,1263.04,1255.42,1251.39,1251.72,1256.66,1263.43,1269.33,1281.18,1288.51,1295.27,1294.67,1291.38,1288.02,1287.65,1287.99,1287.74,1290.97,1294.97,1296.05,1293.47,1291.37,1290.82,1292.13,1295.24,1301.84,1311.48,1320.05,1330.13,1340.35,1356.12,1380.04,1402.54,1411.46,1413.31,1418.41,1420.63,1421.21,1417.91,1417.74,1417.71,1419.99,1419.82,1420.25,1419.56,1421.00,1421.95,1421.70,1421.47,1422.30,1421.47,1422.97,1423.65,1426.60,1425.63,1426.50,1425.86,1427.76,1427.35,1427.26,1427.45,1428.77,1429.20,1429.38,1430.13,1431.34,1431.38,1430.21,1430.47,1431.58,1432.67,1433.60,1433.75,1433.70,1432.03,1431.59,1433.44,1433.88,1434.68,1434.60,1436.25,1435.22,1434.51,1434.69,1435.18,1435.63,1435.95,1436.66,1437.28,1437.27,1436.39,1435.43,1435.44,1436.53,1437.20,1437.18,1437.94,1438.27,1438.97,1439.78,1439.25,1439.79,1439.70,1441.05,1441.44,1441.63,1442.32,1441.34,1442.38,1441.39,1441.92,1440.92,1441.84,1442.51,1443.22,1443.59,1443.81,1443.18,1443.06,1442.85,1443.26,1444.25,1444.23,1444.02,1442.28,1443.39,1443.31,1444.32,1444.33,1444.59,1445.90,1445.79,1447.42,1446.18,1446.68,1447.52,1449.00,1450.45,1449.46,1448.65,1447.14,1447.90,1448.98,1449.42,1449.06,1448.98,1448.92,1449.57,1449.61,1449.81,1450.08,1450.59,1451.17,1450.92,1450.62,1450.54,1450.66,1451.84,1454.16,1454.96,1456.12,1455.27,1456.39,1455.92,1455.17,1454.36,1453.45,1454.80,1455.34,1456.60,1456.29,1455.86,1457.01,1457.39,1459.45,1458.37,1458.20,1457.46,1457.67,1458.14,1458.22,1459.33,1461.30,1461.64,1462.51,1462.21,1462.18,1462.05,1463.25,1464.30,1464.47,1463.56,1464.41,1465.00,1465.11,1464.32,1465.04,1467.28,1468.51,1467.48,1466.52,1465.83,1466.57,1466.32,1467.24,1467.44,1467.76,1468.04,1469.40,1470.17,1470.15,1468.98,1469.69,1469.43,1470.02,1469.90,1471.73,1473.62,1474.74,1475.53,1476.28,1476.30,1476.12,1476.15,1478.35,1477.07,1476.30,1474.63,1475.26,1475.25,1476.01,1478.94,1479.71,1479.77,1477.55,1478.86,1478.59,1480.60,1480.27,1482.35,1482.03,1482.01,1480.52,1481.07,1482.30,1484.95,1484.71,1484.50,1483.84,1483.37,1483.47,1483.47,1484.22,1484.46,1486.02,1486.16,1488.16,1489.56,1490.67,1489.94,1489.80,1491.39,1492.02,1491.43,1491.90,1492.02,1493.02,1493.29,1494.75,1496.00,1493.99,1493.37,1494.23,1497.35,1497.26,1497.58,1497.74,1500.06,1498.35,1499.80,1499.42,1501.13,1499.50,1499.31,1499.32,1500.28,1500.20,1500.36,1500.91,1502.14,1502.87,1502.63,1502.24,1501.31,1499.53,1498.01,1498.94,1501.31,1501.58,1500.71,1499.36,1500.74,1500.72,1502.14,1501.92,1502.82,1504.58,1504.59,1503.05,1501.94,1503.79,1503.40,1501.50,1500.27,1503.29,1504.65,1502.50,1501.95,1501.37,1502.54,1502.95,1502.16,1503.25,1499.48,1497.36,1498.37,1500.07,1500.13,0.00,0.00,0.00,0.00,0.00,0.00,0.00,0.00,0.00,0.00,0.00,0.00,0.00,0.00,0.00,0.00,0.00,0.00,0.00,0.00,0.00,0.00,0.00,0.00,0.00,0.00,0.00,0.00,0.00,0.00,0.00,0.00,0.00,0.00,0.00,0.00,0.00,0.00,0.00,0.00,0.00,0.00,0.00,0.00,0.00,0.00,0.00,0.00,0.00,0.00,0.00,0.00,0.00,0.00,0.00,0.00,0.00,0.00,0.00,0.00,0.00,0.00,0.00,0.00,0.00,0.00,0.00,0.00,0.00,0.00,0.00,0.00,0.00,0.00,0.00,0.00,0.00,0.00,0.00,0.00,0.00,0.00,0.00,0.00,0.00,0.00,0.00,0.00,0.00,0.00,0.00,0.00,0.00,0.00,0.00,0.00,0.00,0.00,0.00,0.00,0.00,0.00,0.00,0.00,0.00,0.00,0.00,0.00,0.00,0.00,0.00,0.00,0.00,0.00,0.00,0.00,0.00,0.00,0.00,0.00,0.00,0.00,0.00,0.00,0.00
0.00,0.00,0.00,0.00,0.00,0.00,0.00,0.00,0.00,0.00,0.00,0.00,0.00,0.00,0.00,0.00,0.00,0.00,0.00,0.00,0.00,0.00,0.00,0.00,0.00,0.00,0.00,0.00,0.00,0.00,0.00,0.00,0.00,0.00,0.00,0.00,1248.81,1280.54,1298.47,1294.79,1286.52,1275.28,1267.27,1256.10,1252.97,1255.37,1257.36,1262.06,1265.02,1274.33,1280.93,1286.18,1290.79,1290.96,1289.82,1287.40,1289.42,1289.76,1292.10,1293.76,1294.32,1292.93,1291.25,1290.28,1291.07,1293.56,1301.92,1312.11,1322.10,1331.77,1342.03,1356.36,1376.30,1400.59,1412.06,1414.52,1418.09,1419.33,1421.05,1419.96,1420.65,1419.60,1419.88,1420.69,1422.33,1423.55,1423.74,1423.58,1423.22,1423.43,1424.43,1423.66,1423.76,1424.34,1426.85,1427.34,1429.45,1430.04,1430.73,1429.87,1428.65,1429.18,1430.23,1430.01,1429.97,1430.19,1432.17,1431.90,1430.37,1430.60,1431.46,1432.28,1433.52,1434.04,1434.43,1433.33,1432.60,1433.69,1434.18,1435.30,1435.34,1435.73,1434.76,1433.29,1433.36,1434.89,1436.56,1437.66,1437.76,1438.29,1437.56,1437.08,1436.29,1436.97,1436.80,1437.25,1437.22,1438.84,1439.32,1440.42,1439.92,1439.18,1438.95,1440.08,1440.47,1440.86,1440.62,1441.39,1440.46,1441.74,1442.09,1442.19,1441.21,1442.01,1443.36,1444.34,1444.08,1444.54,1443.28,1442.85,1442.71,1443.58,1444.62,1444.19,1444.49,1444.01,1445.23,1444.18,1444.53,1444.60,1445.71,1446.54,1445.95,1447.08,1445.44,1446.24,1446.79,1448.22,1448.69,1448.22,1448.45,1447.70,1448.22,1449.08,1449.63,1449.36,1450.08,1451.03,1451.51,1451.07,1450.41,1450.54,1450.92,1451.46,1450.98,1450.53,1450.56,1451.69,1452.79,1454.91,1454.82,1456.17,1455.42,1457.06,1455.99,1455.75,1455.80,1455.72,1456.46,1455.43,1455.86,1456.27,1456.59,1457.61,1457.66,1459.35,1458.29,1458.37,1457.83,1458.54,1459.00,1459.23,1460.00,1461.20,1460.65,1461.41,1460.95,1461.16,1461.34,1463.28,1464.53,1465.32,1464.07,1465.08,1465.24,1465.91,1465.42,1466.03,1467.15,1467.56,1466.24,1466.06,1466.25,1467.17,1467.33,1468.80,1469.09,1468.66,1468.67,1469.90,1470.78,1470.49,1469.41,1470.22,1470.15,1470.80,1470.59,1472.34,1472.79,1473.65,1473.65,1475.88,1476.53,1477.29,1477.63,1480.29,1479.85,1479.30,1477.55,1478.11,1477.27,1477.27,1478.48,1479.57,1479.70,1479.03,1479.64,1479.36,1480.65,1480.64,1482.14,1481.82,1482.79,1482.67,1483.15,1483.72,1485.23,1485.75,1485.61,1486.08,1485.77,1486.18,1485.13,1485.90,1486.18,1487.70,1487.19,1489.06,1490.76,1492.20,1491.21,1491.70,1493.01,1494.01,1493.52,1493.86,1493.36,1493.97,1495.16,1497.06,1498.23,1496.91,1496.11,1496.84,1497.65,1497.65,1496.81,1498.74,1501.04,1502.09,1502.94,1502.04,1501.37,1499.62,1498.86,1499.00,1499.21,1499.56,1499.27,1499.57,1499.65,1501.32,1500.38,1501.19,1501.70,1501.95,1500.74,1501.01,1502.70,1502.90,1501.10,1500.47,1501.88,1502.71,1502.44,1502.01,1502.69,1504.64,1504.61,1503.79,1502.47,1504.65,1503.24,1501.81,1500.63,1503.89,1505.00,1503.79,1504.23,1502.33,1502.82,1500.63,1503.54,1502.83,1500.09,1495.66,1498.09,0.00,0.00,0.00,0.00,0.00,0.00,0.00,0.00,0.00,0.00,0.00,0.00,0.00,0.00,0.00,0.00,0.00,0.00,0.00,0.00,0.00,0.00,0.00,0.00,0.00,0.00,0.00,0.00,0.00,0.00,0.00,0.00,0.00,0.00,0.00,0.00,0.00,0.00,0.00,0.00,0.00,0.00,0.00,0.00,0.00,0.00,0.00,0.00,0.00,0.00,0.00,0.00,0.00,0.00,0.00,0.00,0.00,0.00,0.00,0.00,0.00,0.00,0.00,0.00,0.00,0.00,0.00,0.00,0.00,0.00,0.00,0.00,0.00,0.00,0.00,0.00,0.00,0.00,0.00,0.00,0.00,0.00,0.00,0.00,0.00,0.00,0.00,0.00,0.00,0.00,0.00,0.00,0.00,0.00,0.00,0.00,0.00,0.00,0.00,0.00,0.00,0.00,0.00,0.00,0.00,0.00,0.00,0.00,0.00,0.00,0.00,0.00,0.00,0.00,0.00,0.00,0.00,0.00,0.00,0.00,0.00,0.00,0.00,0.00,0.00,0.00,0.00
0.00,0.00,0.00,0.00,0.00,0.00,0.00,0.00,0.00,0.00,0.00,0.00,0.00,0.00,0.00,0.00,0.00,0.00,0.00,0.00,0.00,0.00,0.00,0.00,0.00,0.00,0.00,0.00,0.00,0.00,0.00,0.00,0.00,0.00,0.00,0.00,0.00,1264.37,1288.83,1294.04,1293.80,1286.62,1273.12,1261.52,1257.39,1259.60,1258.38,1261.41,1265.17,1279.34,1287.18,1290.88,1291.97,1291.77,1290.46,1285.98,1286.92,1289.45,1293.20,1295.78,1295.30,1295.83,1294.19,1292.20,1291.80,1294.29,1304.76,1314.03,1323.32,1330.96,1342.61,1358.77,1381.42,1404.54,1414.96,1419.12,1422.48,1423.31,1423.43,1423.80,1424.78,1424.99,1423.52,1423.53,1423.82,1426.31,1426.24,1426.96,1427.08,1427.67,1427.94,1427.42,1428.42,1429.21,1430.93,1431.64,1433.29,1433.01,1433.48,1433.05,1433.17,1432.10,1432.89,1431.50,1432.92,1431.78,1433.72,1432.14,1431.69,1432.69,1433.48,1434.25,1435.15,1436.61,1437.11,1436.70,1435.89,1436.54,1437.66,1438.54,1438.46,1437.63,1437.35,1437.76,1437.07,1438.46,1439.04,1441.94,1442.00,1441.76,1440.95,1439.49,1439.20,1438.70,1439.10,1440.42,1441.32,1442.92,1442.06,1443.37,1442.41,1441.92,1440.96,1442.81,1443.84,1445.10,1443.88,1443.94,1442.10,1443.41,1444.16,1445.99,1445.53,1445.19,1445.35,1445.44,1446.09,1446.87,1447.73,1447.28,1447.47,1447.75,1448.75,1447.84,1447.85,1446.59,1446.88,1446.58,1447.77,1447.73,1448.17,1447.82,1447.71,1449.05,1449.20,1450.69,1451.62,1452.22,1451.91,1450.47,1451.77,1451.67,1452.29,1452.31,1452.85,1452.90,1453.34,1454.28,1454.77,1454.80,1454.96,1454.94,1455.23,1455.01,1454.56,1454.22,1454.28,1456.97,1457.60,1459.39,1457.73,1459.02,1458.86,1460.11,1459.46,1459.06,1459.57,1460.30,1460.40,1459.60,1458.74,1459.51,1460.17,1461.48,1461.35,1462.84,1461.91,1462.71,1462.50,1463.43,1463.46,1463.24,1464.11,1464.71,1464.58,1464.92,1464.50,1464.10,1464.27,1465.68,1466.69,1467.13,1466.89,1467.87,1468.92,1470.17,1470.50,1470.86,1471.11,1470.69,1469.57,1469.71,1470.27,1471.23,1471.42,1472.39,1472.75,1472.03,1471.72,1472.52,1473.01,1473.02,1472.21,1473.94,1474.83,1475.66,1475.74,1476.84,1477.72,1478.22,1478.32,1479.25,1479.28,1479.50,1480.20,1482.03,1483.04,1482.14,1482.19,1480.95,1480.98,1480.14,1481.85,1483.41,1484.23,1483.60,1482.65,1481.56,1483.20,1484.15,1485.82,1485.24,1486.07,1486.42,1487.28,1487.76,1489.52,1489.53,1489.39,1488.60,1489.19,1490.26,1490.29,1490.71,1491.50,1492.43,1492.65,1492.89,1493.90,1493.99,1494.74,1495.93,1498.06,1498.57,1498.49,1498.03,1498.30,1499.03,1500.54,1501.08,1502.94,1502.78,1503.96,1505.50,1506.26,1505.37,1504.15,1505.13,1507.76,1508.71,1509.46,1508.05,1505.88,1504.30,1502.74,1502.57,1501.72,1501.76,1501.76,1501.84,1503.09,1504.49,1504.93,1505.00,1506.22,1506.68,1506.79,1505.91,1507.14,1507.07,1506.58,1506.45,1507.57,1508.61,1507.55,1507.15,1506.67,1507.17,1506.27,1505.58,1505.66,1508.62,1509.69,1508.75,1505.43,1505.40,1505.92,1505.39,1507.44,1504.87,1505.18,1503.05,1507.46,1507.88,1505.95,1502.29,1503.52,1504.36,1504.34,0.00,0.00,0.00,0.00,0.00,0.00,0.00,0.00,0.00,0.00,0.00,0.00,0.00,0.00,0.00,0.00,0.00,0.00,0.00,0.00,0.00,0.00,0.00,0.00,0.00,0.00,0.00,0.00,0.00,0.00,0.00,0.00,0.00,0.00,0.00,0.00,0.00,0.00,0.00,0.00,0.00,0.00,0.00,0.00,0.00,0.00,0.00,0.00,0.00,0.00,0.00,0.00,0.00,0.00,0.00,0.00,0.00,0.00,0.00,0.00,0.00,0.00,0.00,0.00,0.00,0.00,0.00,0.00,0.00,0.00,0.00,0.00,0.00,0.00,0.00,0.00,0.00,0.00,0.00,0.00,0.00,0.00,0.00,0.00,0.00,0.00,0.00,0.00,0.00,0.00,0.00,0.00,0.00,0.00,0.00,0.00,0.00,0.00,0.00,0.00,0.00,0.00,0.00,0.00,0.00,0.00,0.00,0.00,0.00,0.00,0.00,0.00,0.00,0.00,0.00,0.00,0.00,0.00,0.00,0.00,0.00,0.00,0.00,0.00,0.00
0.00,0.00,0.00,0.00,0.00,0.00,0.00,0.00,0.00,0.00,0.00,0.00,0.00,0.00,0.00,0.00,0.00,0.00,0.00,0.00,0.00,0.00,0.00,0.00,0.00,0.00,0.00,0.00,0.00,0.00,0.00,0.00,0.00,0.00,0.00,0.00,0.00,0.00,1281.88,1291.77,1297.23,1292.98,1284.37,1269.27,1260.74,1256.76,1255.78,1257.33,1262.13,1272.90,1284.57,1290.09,1291.26,1287.79,1285.33,1283.39,1285.56,1288.24,1291.14,1291.95,1290.55,1291.71,1290.36,1289.07,1288.11,1291.29,1303.49,1313.86,1326.14,1339.03,1353.17,1369.54,1387.85,1407.46,1417.73,1422.08,1423.83,1425.39,1424.99,1425.92,1425.80,1427.20,1426.34,1425.33,1425.90,1426.57,1426.74,1426.26,1426.74,1427.89,1428.18,1429.10,1430.19,1430.70,1430.99,1432.18,1434.31,1434.70,1433.48,1433.28,1433.11,1432.11,1432.23,1431.65,1434.42,1432.55,1432.86,1430.54,1432.34,1434.10,1434.64,1433.50,1433.04,1435.11,1436.22,1438.13,1437.48,1437.45,1438.02,1438.45,1438.86,1437.22,1437.00,1437.94,1438.73,1439.83,1439.65,1440.62,1440.96,1441.29,1440.47,1439.28,1439.33,1440.76,1440.90,1441.46,1441.44,1442.75,1442.49,1442.88,1441.89,1441.63,1441.35,1442.95,1443.61,1445.19,1444.48,1444.74,1442.65,1442.65,1443.83,1445.96,1447.28,1446.30,1447.22,1447.07,1447.53,1447.33,1448.20,1448.08,1448.31,1448.42,1449.01,1448.42,1448.23,1447.98,1447.72,1448.48,1448.65,1448.45,1448.06,1448.47,1448.48,1449.24,1449.34,1450.09,1451.98,1453.03,1453.67,1452.01,1452.53,1452.86,1453.44,1452.73,1452.66,1452.93,1454.18,1454.92,1454.82,1454.99,1455.08,1454.25,1454.97,1455.06,1456.00,1456.20,1456.17,1457.89,1456.94,1458.74,1457.89,1458.74,1458.69,1459.45,1458.84,1458.92,1459.63,1462.15,1461.71,1461.46,1459.77,1461.13,1462.07,1463.28,1463.34,1464.30,1463.86,1464.30,1464.05,1465.55,1465.07,1464.64,1464.92,1465.46,1465.86,1465.54,1465.52,1465.23,1465.01,1466.10,1466.52,1467.33,1467.48,1468.07,1468.91,1469.70,1470.73,1471.43,1470.66,1470.33,1469.40,1470.55,1471.41,1472.11,1471.99,1472.11,1472.77,1472.98,1473.03,1473.84,1473.41,1473.93,1474.34,1476.01,1476.88,1476.40,1477.33,1477.88,1478.17,1478.03,1478.68,1480.31,1480.54,1479.87,1479.64,1480.50,1482.86,1483.20,1483.93,1481.94,1481.64,1479.97,1480.86,1482.85,1484.35,1484.43,1482.67,1482.69,1483.87,1485.97,1485.90,1485.87,1485.89,1487.26,1487.28,1487.72,1489.17,1490.19,1490.33,1489.78,1490.93,1491.98,1492.14,1492.25,1493.82,1495.67,1495.31,1495.12,1494.10,1494.58,1495.24,1497.48,1499.90,1500.87,1501.69,1502.43,1503.85,1505.42,1506.37,1506.73,1505.57,1506.26,1507.67,1510.76,1511.31,1512.73,1511.34,1511.06,1510.48,1511.07,1512.51,1512.05,1510.68,1508.49,1505.04,1504.06,1502.49,1504.00,1502.96,1502.68,1502.47,1504.88,1504.43,1505.09,1504.71,1506.35,1507.02,1507.11,1506.48,1506.58,1506.63,1507.31,1507.29,1508.32,1507.05,1506.97,1507.22,1507.94,1507.19,1506.06,1506.12,1508.07,1508.69,1508.09,1507.31,1507.56,1507.31,1504.87,1506.37,1506.70,1506.06,1503.16,1504.27,1505.16,1506.07,1504.14,1502.32,1501.30,1501.63,0.00,0.00,0.00,0.00,0.00,0.00,0.00,0.00,0.00,0.00,0.00,0.00,0.00,0.00,0.00,0.00,0.00,0.00,0.00,0.00,0.00,0.00,0.00,0.00,0.00,0.00,0.00,0.00,0.00,0.00,0.00,0.00,0.00,0.00,0.00,0.00,0.00,0.00,0.00,0.00,0.00,0.00,0.00,0.00,0.00,0.00,0.00,0.00,0.00,0.00,0.00,0.00,0.00,0.00,0.00,0.00,0.00,0.00,0.00,0.00,0.00,0.00,0.00,0.00,0.00,0.00,0.00,0.00,0.00,0.00,0.00,0.00,0.00,0.00,0.00,0.00,0.00,0.00,0.00,0.00,0.00,0.00,0.00,0.00,0.00,0.00,0.00,0.00,0.00,0.00,0.00,0.00,0.00,0.00,0.00,0.00,0.00,0.00,0.00,0.00,0.00,0.00,0.00,0.00,0.00,0.00,0.00,0.00,0.00,0.00,0.00,0.00,0.00,0.00,0.00,0.00,0.00,0.00,0.00,0.00,0.00,0.00,0.00,0.00,0.00
0.00,0.00,0.00,0.00,0.00,0.00,0.00,0.00,0.00,0.00,0.00,0.00,0.00,0.00,0.00,0.00,0.00,0.00,0.00,0.00,0.00,0.00,0.00,0.00,0.00,0.00,0.00,0.00,0.00,0.00,0.00,0.00,0.00,0.00,0.00,0.00,0.00,0.00,0.00,1292.05,1300.32,1302.24,1298.72,1286.58,1269.46,1259.76,1258.76,1262.32,1266.68,1277.65,1288.83,1295.01,1292.33,1287.23,1285.32,1283.65,1285.09,1286.93,1290.47,1290.96,1291.25,1292.41,1291.89,1289.99,1290.14,1294.36,1305.11,1313.24,1328.77,1348.90,1372.72,1388.54,1399.24,1414.46,1423.98,1427.11,1426.52,1426.84,1426.41,1427.58,1428.27,1430.40,1430.60,1428.64,1428.99,1427.58,1427.76,1427.78,1430.10,1432.05,1431.82,1431.85,1433.21,1434.43,1435.65,1436.13,1436.79,1437.11,1435.72,1436.04,1435.70,1435.60,1435.80,1435.80,1438.44,1437.71,1437.20,1434.30,1435.37,1436.77,1438.26,1437.83,1437.79,1439.40,1439.61,1440.86,1440.36,1440.65,1440.59,1440.27,1440.10,1439.05,1439.40,1441.16,1442.88,1443.05,1442.85,1442.52,1443.10,1442.88,1443.05,1442.05,1442.12,1443.20,1445.29,1444.90,1444.77,1444.56,1444.94,1444.46,1443.86,1444.32,1444.41,1445.33,1446.55,1447.94,1448.06,1449.16,1448.38,1447.65,1446.54,1447.43,1448.40,1448.27,1449.65,1450.09,1451.04,1450.12,1451.72,1451.28,1452.60,1452.34,1452.22,1451.00,1449.80,1450.41,1450.20,1452.13,1451.97,1452.84,1452.09,1452.74,1451.71,1453.02,1453.20,1454.51,1455.55,1457.51,1457.95,1456.15,1455.67,1456.30,1456.89,1456.03,1455.39,1455.94,1457.65,1458.66,1458.96,1458.61,1458.70,1457.61,1458.50,1458.73,1459.93,1459.78,1459.95,1461.03,1460.08,1461.22,1461.24,1462.86,1463.20,1462.94,1462.19,1462.06,1462.40,1463.15,1463.16,1463.29,1462.59,1463.48,1464.87,1466.23,1466.33,1467.16,1467.63,1467.42,1467.59,1467.65,1467.60,1467.72,1469.15,1470.07,1470.05,1469.40,1470.06,1469.83,1469.21,1468.95,1468.92,1469.66,1470.47,1471.70,1472.15,1472.45,1473.48,1475.05,1474.67,1473.79,1473.59,1473.93,1474.54,1474.45,1475.26,1476.21,1476.91,1476.28,1476.70,1476.98,1477.53,1477.61,1478.94,1480.14,1480.69,1480.08,1481.30,1481.96,1483.28,1481.89,1482.63,1482.46,1483.76,1483.06,1483.18,1483.55,1485.79,1485.75,1486.19,1484.10,1485.36,1484.22,1485.25,1485.53,1487.37,1487.39,1486.76,1486.90,1488.56,1490.05,1489.14,1488.97,1489.79,1491.17,1491.33,1492.17,1493.95,1493.98,1493.84,1493.77,1495.32,1495.28,1495.45,1495.67,1498.26,1498.72,1498.67,1498.35,1498.92,1499.97,1501.36,1503.65,1505.96,1506.81,1508.77,1511.21,1513.10,1515.20,1514.52,1513.55,1511.23,1513.03,1514.83,1515.90,1516.39,1518.51,1519.71,1518.45,1516.43,1514.40,1516.30,1516.41,1518.73,1515.63,1512.69,1508.62,1508.47,1508.83,1508.42,1507.36,1508.67,1510.74,1509.75,1509.21,1507.16,1508.41,1510.83,1511.74,1511.27,1509.41,1510.96,1511.63,1511.45,1511.60,1510.65,1510.91,1512.04,1512.37,1511.74,1510.54,1511.94,1513.63,1513.38,1511.81,1512.47,1512.45,1514.45,1511.07,1512.10,1509.07,1507.33,1503.88,1507.55,1510.79,1513.33,1510.33,1506.05,1502.22,1500.53,1503.45,0.00,0.00,0.00,0.00,0.00,0.00,0.00,0.00,0.00,0.00,0.00,0.00,0.00,0.00,0.00,0.00,0.00,0.00,0.00,0.00,0.00,0.00,0.00,0.00,0.00,0.00,0.00,0.00,0.00,0.00,0.00,0.00,0.00,0.00,0.00,0.00,0.00,0.00,0.00,0.00,0.00,0.00,0.00,0.00,0.00,0.00,0.00,0.00,0.00,0.00,0.00,0.00,0.00,0.00,0.00,0.00,0.00,0.00,0.00,0.00,0.00,0.00,0.00,0.00,0.00,0.00,0.00,0.00,0.00,0.00,0.00,0.00,0.00,0.00,0.00,0.00,0.00,0.00,0.00,0.00,0.00,0.00,0.00,0.00,0.00,0.00,0.00,0.00,0.00,0.00,0.00,0.00,0.00,0.00,0.00,0.00,0.00,0.00,0.00,0.00,0.00,0.00,0.00,0.00,0.00,0.00,0.00,0.00,0.00,0.00,0.00,0.00,0.00,0.00,0.00,0.00,0.00,0.00,0.00,0.00,0.00,0.00,0.00,0.00
0.00,0.00,0.00,0.00,0.00,0.00,0.00,0.00,0.00,0.00,0.00,0.00,0.00,0.00,0.00,0.00,0.00,0.00,0.00,0.00,0.00,0.00,0.00,0.00,0.00,0.00,0.00,0.00,0.00,0.00,0.00,0.00,0.00,0.00,0.00,0.00,0.00,0.00,0.00,1255.64,1294.06,1300.26,1306.18,1299.87,1281.93,1265.02,1263.38,1265.26,1267.71,1275.29,1286.96,1292.43,1289.85,1283.62,1282.74,1282.17,1284.80,1286.49,1289.45,1290.74,1291.41,1290.04,1285.43,1283.87,1286.10,1293.13,1303.07,1311.65,1327.49,1355.47,1386.67,1401.31,1405.55,1415.70,1425.28,1428.08,1426.79,1426.27,1427.58,1428.35,1428.77,1427.85,1429.93,1430.46,1431.95,1428.77,1427.86,1428.46,1430.36,1432.62,1432.34,1433.43,1433.55,1433.86,1434.54,1434.37,1436.35,1437.24,1436.26,1435.28,1434.69,1436.87,1437.51,1438.03,1439.17,1439.84,1439.16,1436.93,1436.63,1438.64,1440.16,1439.67,1439.12,1439.95,1440.68,1442.62,1442.20,1441.52,1440.19,1440.40,1440.69,1440.01,1440.30,1442.14,1444.75,1444.29,1443.68,1441.99,1444.02,1444.65,1445.10,1443.97,1443.50,1444.64,1446.30,1444.58,1444.07,1442.76,1444.69,1443.82,1443.60,1444.29,1445.73,1446.51,1447.51,1447.67,1448.39,1449.04,1449.75,1449.26,1448.67,1448.67,1448.75,1448.35,1449.28,1451.05,1451.72,1450.89,1450.92,1451.14,1452.22,1452.43,1452.36,1451.88,1450.99,1451.15,1451.58,1453.05,1453.21,1453.74,1453.51,1454.72,1452.60,1453.43,1452.67,1455.46,1455.93,1457.96,1457.61,1457.70,1457.23,1457.93,1457.34,1455.72,1454.27,1455.01,1457.95,1460.10,1459.61,1458.83,1458.53,1458.52,1459.49,1460.23,1461.02,1460.21,1460.34,1459.83,1459.45,1459.53,1461.66,1463.31,1463.55,1462.39,1461.28,1462.00,1462.72,1463.81,1463.69,1463.95,1463.61,1463.72,1465.13,1466.34,1467.48,1468.14,1468.70,1467.98,1467.66,1467.06,1466.71,1467.08,1468.49,1469.86,1469.55,1469.74,1470.97,1471.06,1469.76,1469.73,1469.72,1470.95,1470.85,1472.30,1472.37,1472.49,1473.05,1474.84,1475.59,1474.88,1474.45,1474.00,1474.42,1474.32,1475.38,1476.84,1477.11,1476.64,1477.25,1478.43,1479.01,1478.57,1479.95,1480.63,1481.17,1480.29,1481.39,1481.82,1482.90,1481.90,1482.63,1482.86,1484.69,1484.95,1485.37,1485.26,1485.76,1485.16,1484.73,1484.14,1484.78,1484.63,1484.87,1484.96,1486.24,1486.75,1487.27,1488.51,1489.96,1491.03,1490.77,1490.36,1491.51,1492.90,1493.29,1493.71,1493.26,1494.12,1494.50,1495.48,1496.75,1496.26,1496.73,1496.54,1498.40,1498.20,1498.33,1500.02,1502.73,1504.87,1506.32,1510.04,1513.71,1514.90,1517.14,1521.01,1523.40,1523.91,1519.33,1516.94,1514.89,1518.89,1520.79,1520.92,1520.21,1523.25,1523.87,1523.95,1521.82,1520.87,1522.95,1521.88,1523.37,1518.83,1516.68,1511.83,1512.32,1512.76,1512.66,1510.61,1510.21,1510.85,1509.64,1508.44,1506.29,1507.21,1510.45,1512.48,1512.64,1511.47,1511.79,1511.44,1509.60,1509.64,1509.70,1511.26,1512.01,1511.90,1510.85,1511.10,1513.03,1514.47,1513.23,1512.02,1514.23,1517.52,1519.00,1515.60,1513.97,1512.23,1509.86,1508.65,1509.02,1512.38,1511.90,1511.16,1507.86,1504.12,0.00,0.00,0.00,0.00,0.00,0.00,0.00,0.00,0.00,0.00,0.00,0.00,0.00,0.00,0.00,0.00,0.00,0.00,0.00,0.00,0.00,0.00,0.00,0.00,0.00,0.00,0.00,0.00,0.00,0.00,0.00,0.00,0.00,0.00,0.00,0.00,0.00,0.00,0.00,0.00,0.00,0.00,0.00,0.00,0.00,0.00,0.00,0.00,0.00,0.00,0.00,0.00,0.00,0.00,0.00,0.00,0.00,0.00,0.00,0.00,0.00,0.00,0.00,0.00,0.00,0.00,0.00,0.00,0.00,0.00,0.00,0.00,0.00,0.00,0.00,0.00,0.00,0.00,0.00,0.00,0.00,0.00,0.00,0.00,0.00,0.00,0.00,0.00,0.00,0.00,0.00,0.00,0.00,0.00,0.00,0.00,0.00,0.00,0.00,0.00,0.00,0.00,0.00,0.00,0.00,0.00,0.00,0.00,0.00,0.00,0.00,0.00,0.00,0.00,0.00,0.00,0.00,0.00,0.00,0.00,0.00,0.00,0.00,0.00,0.00,0.00
0.00,0.00,0.00,0.00,0.00,0.00,0.00,0.00,0.00,0.00,0.00,0.00,0.00,0.00,0.00,0.00,0.00,0.00,0.00,0.00,0.00,0.00,0.00,0.00,0.00,0.00,0.00,0.00,0.00,0.00,0.00,0.00,0.00,0.00,0.00,0.00,0.00,0.00,0.00,0.00,1264.07,1298.84,1312.70,1312.21,1301.37,1281.10,1270.21,1269.09,1272.03,1281.15,1290.92,1293.87,1290.58,1283.37,1282.94,1280.62,1284.13,1286.07,1290.12,1291.72,1293.34,1290.58,1286.39,1284.42,1287.98,1295.85,1306.12,1312.40,1324.88,1348.61,1382.06,1401.06,1409.96,1420.59,1428.48,1430.96,1429.68,1429.03,1430.51,1430.70,1432.01,1429.95,1432.11,1434.05,1435.17,1432.89,1431.92,1434.07,1436.03,1435.84,1434.54,1435.78,1436.81,1438.77,1439.31,1438.27,1439.35,1440.05,1440.29,1438.61,1437.57,1439.90,1441.53,1442.64,1442.27,1443.49,1442.74,1441.21,1439.10,1441.45,1443.43,1444.03,1442.63,1442.52,1443.55,1444.99,1444.74,1443.64,1443.18,1444.22,1444.33,1444.24,1444.41,1446.53,1448.44,1447.86,1447.11,1445.68,1447.14,1448.10,1448.51,1446.90,1445.37,1445.46,1448.23,1447.73,1448.39,1447.14,1448.70,1447.90,1447.74,1448.60,1450.20,1451.49,1452.23,1451.38,1451.27,1451.39,1452.68,1453.38,1452.63,1452.41,1451.00,1451.23,1451.84,1454.16,1454.21,1453.74,1454.59,1455.27,1456.36,1456.03,1457.08,1455.97,1455.17,1454.30,1455.66,1456.94,1457.16,1457.15,1456.63,1457.47,1456.19,1456.74,1456.67,1459.07,1459.02,1459.95,1459.91,1461.41,1461.71,1462.02,1460.96,1459.91,1457.85,1458.21,1459.44,1461.12,1461.79,1462.46,1463.85,1464.00,1464.28,1464.66,1464.48,1463.61,1463.14,1463.76,1464.10,1463.89,1465.24,1466.37,1466.50,1465.18,1465.20,1466.19,1467.34,1467.76,1467.93,1467.87,1467.49,1467.03,1467.25,1468.17,1469.21,1470.81,1471.32,1470.89,1470.39,1470.62,1470.32,1471.25,1472.00,1474.29,1473.47,1473.45,1474.87,1475.60,1474.91,1473.48,1473.41,1474.98,1474.99,1477.03,1477.21,1477.69,1477.12,1477.91,1479.35,1478.76,1478.79,1477.67,1478.32,1477.91,1479.58,1480.75,1481.69,1480.64,1481.53,1482.02,1482.33,1481.62,1483.02,1484.27,1484.59,1483.75,1483.98,1484.56,1485.91,1485.23,1485.94,1485.63,1487.45,1487.69,1488.48,1488.90,1489.00,1488.31,1488.22,1488.76,1490.01,1490.27,1490.67,1490.66,1491.22,1492.02,1493.01,1493.40,1493.27,1493.45,1494.45,1495.20,1497.24,1499.28,1500.22,1499.89,1497.78,1498.61,1499.68,1501.10,1501.37,1501.70,1503.49,1503.87,1504.45,1502.41,1503.17,1504.51,1508.90,1512.41,1517.20,1525.46,1531.43,1529.13,1528.80,1533.63,1536.63,1530.99,1524.57,1522.13,1527.14,1536.10,1539.54,1537.62,1536.81,1536.77,1537.59,1537.73,1536.00,1535.26,1537.44,1535.55,1533.44,1527.19,1525.90,1520.42,1520.70,1518.55,1518.05,1515.00,1514.74,1513.89,1513.96,1513.35,1512.83,1513.39,1515.54,1518.20,1519.23,1518.41,1517.64,1516.35,1515.21,1515.04,1514.84,1516.64,1517.91,1518.41,1516.79,1517.17,1518.74,1519.53,1518.21,1516.57,1517.18,1519.03,1520.18,1519.35,1518.49,1517.22,1515.82,1514.91,1515.31,1515.57,1513.53,1514.06,1512.52,1510.43,0.00,0.00,0.00,0.00,0.00,0.00,0.00,0.00,0.00,0.00,0.00,0.00,0.00,0.00,0.00,0.00,0.00,0.00,0.00,0.00,0.00,0.00,0.00,0.00,0.00,0.00,0.00,0.00,0.00,0.00,0.00,0.00,0.00,0.00,0.00,0.00,0.00,0.00,0.00,0.00,0.00,0.00,0.00,0.00,0.00,0.00,0.00,0.00,0.00,0.00,0.00,0.00,0.00,0.00,0.00,0.00,0.00,0.00,0.00,0.00,0.00,0.00,0.00,0.00,0.00,0.00,0.00,0.00,0.00,0.00,0.00,0.00,0.00,0.00,0.00,0.00,0.00,0.00,0.00,0.00,0.00,0.00,0.00,0.00,0.00,0.00,0.00,0.00,0.00,0.00,0.00,0.00,0.00,0.00,0.00,0.00,0.00,0.00,0.00,0.00,0.00,0.00,0.00,0.00,0.00,0.00,0.00,0.00,0.00,0.00,0.00,0.00,0.00,0.00,0.00,0.00,0.00,0.00,0.00,0.00,0.00,0.00,0.00,0.00,0.00,0.00
0.00,0.00,0.00,0.00,0.00,0.00,0.00,0.00,0.00,0.00,0.00,0.00,0.00,0.00,0.00,0.00,0.00,0.00,0.00,0.00,0.00,0.00,0.00,0.00,0.00,0.00,0.00,0.00,0.00,0.00,0.00,0.00,0.00,0.00,0.00,0.00,0.00,0.00,0.00,0.00,1260.38,1291.11,1314.29,1318.37,1313.91,1297.73,1278.21,1269.39,1272.21,1281.22,1288.90,1293.00,1290.18,1282.81,1280.20,1280.19,1283.75,1286.29,1288.33,1290.60,1290.25,1287.47,1282.25,1282.06,1283.89,1291.72,1302.63,1312.97,1322.84,1340.70,1366.49,1388.17,1405.44,1419.78,1428.41,1431.31,1431.37,1431.27,1432.47,1433.36,1434.73,1431.96,1432.35,1433.98,1436.00,1434.59,1433.69,1434.97,1436.06,1434.74,1434.28,1436.46,1439.10,1440.09,1439.47,1437.80,1439.55,1440.84,1441.52,1440.67,1440.26,1441.77,1443.12,1444.22,1444.39,1443.85,1442.04,1441.60,1441.17,1443.95,1444.28,1444.05,1442.60,1443.12,1444.23,1445.81,1445.28,1443.59,1442.92,1443.60,1444.48,1445.28,1445.82,1447.88,1449.39,1448.76,1447.32,1446.03,1447.81,1449.47,1449.47,1448.31,1447.08,1447.10,1448.08,1447.94,1448.57,1448.21,1449.45,1449.15,1449.10,1449.38,1451.53,1452.80,1453.01,1451.85,1451.88,1451.53,1452.21,1453.11,1454.05,1454.40,1453.18,1453.48,1453.81,1454.86,1454.14,1453.87,1454.90,1455.86,1456.17,1456.29,1457.64,1457.21,1457.03,1456.21,1457.70,1457.99,1457.80,1456.81,1456.12,1456.65,1456.17,1456.67,1457.35,1460.22,1460.77,1460.96,1460.13,1461.75,1461.72,1463.01,1462.43,1462.10,1460.00,1460.22,1460.04,1461.40,1462.08,1464.21,1464.76,1465.03,1464.75,1465.80,1465.68,1465.53,1464.72,1464.68,1465.04,1465.06,1466.76,1466.85,1467.04,1465.51,1466.12,1467.06,1468.61,1469.59,1469.39,1470.02,1469.98,1469.41,1469.09,1469.06,1469.66,1470.30,1470.49,1471.47,1471.88,1473.33,1472.70,1473.15,1472.88,1475.20,1474.25,1474.81,1475.60,1476.34,1475.62,1474.57,1475.04,1476.14,1475.98,1477.69,1478.71,1478.50,1477.73,1477.74,1479.40,1479.74,1479.69,1478.33,1478.33,1479.05,1481.14,1481.74,1482.35,1483.42,1484.52,1485.00,1482.87,1482.33,1483.65,1486.16,1486.03,1484.55,1483.98,1484.13,1485.10,1485.27,1486.90,1487.46,1489.11,1488.98,1489.30,1488.97,1488.65,1488.36,1488.50,1489.93,1490.05,1490.00,1491.00,1492.21,1492.84,1493.03,1494.14,1495.02,1494.60,1494.75,1496.03,1497.21,1498.89,1500.71,1501.59,1501.74,1500.85,1503.23,1504.21,1503.71,1505.09,1507.97,1512.11,1512.52,1511.68,1509.37,1510.06,1513.13,1519.29,1524.58,1532.72,1548.06,0.00,1560.57,1546.36,1552.54,1555.06,1540.70,1533.38,1545.55,1567.12,1564.29,1570.75,0.00,0.00,1587.48,1598.50,1582.09,1572.16,0.00,0.00,0.00,1552.29,1540.33,1533.78,1530.98,1529.26,1526.08,1523.09,1518.17,1515.82,1513.60,1513.36,1513.03,1514.65,1516.20,1517.50,1519.16,1519.51,1520.26,1518.10,1516.71,1515.20,1515.75,1516.05,1516.04,1516.28,1517.54,1517.67,1518.78,1519.00,1518.63,1519.05,1519.72,1519.76,1520.47,1519.12,1518.96,1518.57,1520.07,1520.00,1518.59,1515.93,1514.92,1511.79,1514.17,1514.51,1516.57,0.00,0.00,0.00,0.00,0.00,0.00,0.00,0.00,0.00,0.00,0.00,0.00,0.00,0.00,0.00,0.00,0.00,0.00,0.00,0.00,0.00,0.00,0.00,0.00,0.00,0.00,0.00,0.00,0.00,0.00,0.00,0.00,0.00,0.00,0.00,0.00,0.00,0.00,0.00,0.00,0.00,0.00,0.00,0.00,0.00,0.00,0.00,0.00,0.00,0.00,0.00,0.00,0.00,0.00,0.00,0.00,0.00,0.00,0.00,0.00,0.00,0.00,0.00,0.00,0.00,0.00,0.00,0.00,0.00,0.00,0.00,0.00,0.00,0.00,0.00,0.00,0.00,0.00,0.00,0.00,0.00,0.00,0.00,0.00,0.00,0.00,0.00,0.00,0.00,0.00,0.00,0.00,0.00,0.00,0.00,0.00,0.00,0.00,0.00,0.00,0.00,0.00,0.00,0.00,0.00,0.00,0.00,0.00,0.00,0.00,0.00,0.00,0.00,0.00,0.00,0.00,0.00,0.00,0.00,0.00,0.00,0.00,0.00,0.00,0.00,0.00
0.00,0.00,0.00,0.00,0.00,0.00,0.00,0.00,0.00,0.00,0.00,0.00,0.00,0.00,0.00,0.00,0.00,0.00,0.00,0.00,0.00,0.00,0.00,0.00,0.00,0.00,0.00,0.00,0.00,0.00,0.00,0.00,0.00,0.00,0.00,0.00,0.00,0.00,0.00,0.00,0.00,1282.78,1307.38,1317.77,1321.35,1314.50,1292.81,1277.96,1276.90,1285.76,1290.99,1292.73,1287.22,1282.43,1279.03,1281.74,1286.20,1289.20,1290.76,1290.03,1290.53,1289.04,1285.57,1284.61,1284.92,1291.65,1302.96,1315.71,1326.72,1338.96,1357.74,1378.50,1404.28,1423.33,1432.49,1434.81,1435.20,1434.88,1434.49,1434.97,1436.99,1436.76,1435.84,1435.84,1437.36,1437.51,1437.14,1438.30,1438.82,1438.45,1437.85,1440.58,1443.19,1444.90,1444.16,1443.83,1443.89,1443.81,1442.88,1443.23,1443.87,1445.09,1446.56,1447.09,1447.72,1446.15,1444.44,1444.16,1444.68,1445.49,1445.77,1446.75,1447.17,1447.21,1446.18,1446.98,1447.30,1447.60,1447.23,1446.55,1446.37,1448.14,1448.93,1449.68,1449.91,1449.48,1450.59,1450.32,1451.61,1450.82,1450.73,1450.48,1450.17,1448.94,1448.92,1449.75,1451.72,1452.99,1453.95,1453.46,1453.64,1453.80,1455.66,1455.28,1454.46,1453.96,1455.12,1455.48,1456.22,1456.98,1457.37,1456.58,1455.68,1456.92,1458.06,1458.32,1457.36,1457.01,1458.26,1459.28,1460.36,1460.61,1461.50,1460.48,1460.78,1460.70,1461.78,1462.60,1462.18,1461.77,1460.13,1460.41,1460.47,1460.96,1462.24,1464.60,1465.50,1465.00,1464.00,1464.83,1464.57,1465.63,1465.30,1466.18,1464.77,1464.33,1462.62,1463.41,1465.42,1468.48,1469.47,1468.69,1468.07,1468.41,1469.23,1469.42,1469.15,1468.91,1469.52,1470.07,1471.29,1470.58,1470.70,1469.85,1471.23,1471.83,1472.09,1471.89,1471.69,1473.41,1473.61,1473.31,1472.60,1472.95,1473.37,1473.74,1474.25,1474.87,1475.66,1476.73,1477.39,1477.94,1477.39,1478.51,1477.71,1478.40,1478.47,1479.54,1479.42,1479.17,1479.38,1479.99,1480.58,1482.27,1482.91,1482.09,1481.64,1481.93,1482.89,1483.43,1483.83,1483.07,1482.61,1482.76,1485.57,1485.65,1486.80,1488.05,1489.58,1489.28,1485.93,1485.95,1487.60,1490.26,1488.62,1487.66,1487.23,1488.39,1488.09,1488.06,1489.76,1490.66,1492.51,1492.19,1493.24,1493.59,1493.51,1493.40,1493.44,1495.03,1495.54,1495.24,1496.15,1497.31,1498.08,1498.08,1498.38,1498.48,1497.90,1498.11,1499.06,1501.29,1505.51,1506.22,1508.10,1508.27,1514.02,1514.87,1514.36,1514.21,1519.01,1523.93,1525.87,1525.38,1527.04,1525.85,1526.51,1531.28,1543.01,0.00,1579.55,0.00,0.00,0.00,0.00,0.00,0.00,0.00,0.00,0.00,0.00,0.00,0.00,0.00,0.00,0.00,508.72,525.14,530.36,522.64,514.89,510.85,503.55,502.51,0.00,1557.47,1558.92,1540.80,1527.83,1523.60,1522.85,1522.27,1519.17,1518.63,1520.38,1522.57,1522.24,1522.94,1523.26,1523.82,1521.57,1520.92,1520.14,1521.44,1521.06,1519.73,1520.19,1522.17,1523.83,1523.92,1523.41,1523.56,1524.60,1524.79,1524.06,1522.53,1522.66,1523.86,1524.89,1523.61,1522.12,1518.01,1518.44,1517.04,1516.93,1516.15,1518.31,1519.75,1518.39,0.00,0.00,0.00,0.00,0.00,0.00,0.00,0.00,0.00,0.00,0.00,0.00,0.00,0.00,0.00,0.00,0.00,0.00,0.00,0.00,0.00,0.00,0.00,0.00,0.00,0.00,0.00,0.00,0.00,0.00,0.00,0.00,0.00,0.00,0.00,0.00,0.00,0.00,0.00,0.00,0.00,0.00,0.00,0.00,0.00,0.00,0.00,0.00,0.00,0.00,0.00,0.00,0.00,0.00,0.00,0.00,0.00,0.00,0.00,0.00,0.00,0.00,0.00,0.00,0.00,0.00,0.00,0.00,0.00,0.00,0.00,0.00,0.00,0.00,0.00,0.00,0.00,0.00,0.00,0.00,0.00,0.00,0.00,0.00,0.00,0.00,0.00,0.00,0.00,0.00,0.00,0.00,0.00,0.00,0.00,0.00,0.00,0.00,0.00,0.00,0.00,0.00,0.00,0.00,0.00,0.00,0.00,0.00,0.00,0.00,0.00,0.00,0.00,0.00,0.00,0.00,0.00,0.00,0.00,0.00,0.00,0.00,0.00,0.00,0.00
0.00,0.00,0.00,0.00,0.00,0.00,0.00,0.00,0.00,0.00,0.00,0.00,0.00,0.00,0.00,0.00,0.00,0.00,0.00,0.00,0.00,0.00,0.00,0.00,0.00,0.00,0.00,0.00,0.00,0.00,0.00,0.00,0.00,0.00,0.00,0.00,0.00,0.00,0.00,0.00,0.00,0.00,1284.15,1312.67,1322.16,1323.48,1309.00,1288.70,1280.78,1284.25,1288.44,1288.95,1285.31,1280.99,1279.59,1281.69,1284.33,1286.03,1288.21,1289.22,1288.10,1284.08,1281.33,1280.70,1282.91,1290.05,1300.42,1313.99,1326.38,1338.55,1354.44,1375.95,1404.86,1423.07,1431.91,1432.99,1433.88,1435.60,1435.97,1437.11,1436.32,1436.42,1435.23,1436.33,1438.16,1438.19,1438.06,1438.16,1438.00,1438.30,1439.28,1442.24,1444.52,1445.45,1445.36,1444.88,1444.29,1444.00,1442.68,1443.87,1444.58,1445.39,1446.35,1446.17,1446.78,1445.28,1445.04,1446.27,1447.75,1447.58,1447.11,1448.23,1448.90,1448.59,1445.86,1446.48,1447.54,1448.94,1448.58,1447.02,1447.73,1450.50,1451.38,1450.80,1450.57,1451.12,1452.40,1451.98,1452.37,1451.37,1451.03,1452.29,1453.06,1452.90,1450.77,1450.74,1451.60,1453.02,1454.16,1453.53,1454.19,1454.16,1455.17,1455.01,1454.88,1455.37,1456.37,1456.60,1457.15,1457.25,1457.16,1456.84,1456.44,1458.15,1458.78,1459.59,1459.26,1459.63,1459.07,1459.61,1459.97,1461.68,1460.90,1460.38,1461.06,1462.35,1462.78,1462.31,1462.21,1462.64,1461.38,1460.85,1460.38,1461.35,1462.74,1465.71,1466.55,1466.16,1463.61,1463.47,1462.39,1464.17,1464.73,1466.62,1466.28,1465.46,1464.20,1464.71,1465.70,1467.49,1467.93,1468.26,1469.08,1469.80,1470.30,1470.17,1469.64,1470.10,1470.51,1471.36,1471.68,1470.89,1470.29,1469.93,1470.76,1472.07,1472.37,1471.99,1472.08,1474.06,1475.09,1474.95,1474.89,1474.54,1473.92,1473.41,1474.18,1475.79,1476.48,1477.67,1478.47,1478.47,1477.57,1477.33,1477.44,1478.64,1479.45,1480.54,1480.46,1480.57,1480.74,1481.16,1481.55,1482.66,1483.70,1483.50,1483.29,1482.81,1483.37,1484.03,1484.42,1483.70,1483.77,1484.27,1486.70,1486.27,1487.63,1489.04,1490.25,1489.11,1486.20,1486.04,1487.03,1488.50,1488.31,1489.26,1489.64,1490.33,1489.06,1489.38,1490.43,1491.90,1493.25,1493.95,1494.98,1495.37,1494.61,1494.87,1494.58,1495.89,1495.88,1495.84,1496.37,1496.93,1498.88,1499.18,1500.09,1499.08,1499.92,1499.87,1501.71,1503.04,1509.77,1513.04,1516.93,1520.00,1526.55,1524.22,1522.47,1525.00,1540.25,1548.68,1547.18,1544.57,1545.69,1549.02,1554.43,1563.75,1593.05,0.00,0.00,0.00,0.00,0.00,0.00,0.00,0.00,0.00,503.72,513.72,518.90,526.76,539.05,554.43,554.78,551.24,550.21,551.33,548.77,542.48,539.54,528.98,520.50,521.57,0.00,501.23,0.00,0.00,0.00,0.00,1552.27,1534.49,1524.63,1521.35,1525.18,1527.25,1527.38,1525.83,1525.22,1523.06,1520.78,1520.25,1520.72,1522.32,1521.96,1521.03,1519.97,1521.04,1522.37,1522.47,1523.63,1524.29,1526.11,1524.12,1521.40,1520.20,1520.91,1522.32,1523.61,1522.58,1523.02,1517.70,1518.68,1518.13,1520.17,1518.29,1519.55,1519.80,0.00,0.00,0.00,0.00,0.00,0.00,0.00,0.00,0.00,0.00,0.00,0.00,0.00,0.00,0.00,0.00,0.00,0.00,0.00,0.00,0.00,0.00,0.00,0.00,0.00,0.00,0.00,0.00,0.00,0.00,0.00,0.00,0.00,0.00,0.00,0.00,0.00,0.00,0.00,0.00,0.00,0.00,0.00,0.00,0.00,0.00,0.00,0.00,0.00,0.00,0.00,0.00,0.00,0.00,0.00,0.00,0.00,0.00,0.00,0.00,0.00,0.00,0.00,0.00,0.00,0.00,0.00,0.00,0.00,0.00,0.00,0.00,0.00,0.00,0.00,0.00,0.00,0.00,0.00,0.00,0.00,0.00,0.00,0.00,0.00,0.00,0.00,0.00,0.00,0.00,0.00,0.00,0.00,0.00,0.00,0.00,0.00,0.00,0.00,0.00,0.00,0.00,0.00,0.00,0.00,0.00,0.00,0.00,0.00,0.00,0.00,0.00,0.00,0.00,0.00,0.00,0.00,0.00,0.00,0.00,0.00,0.00,0.00,0.00,0.00,0.00
0.00,0.00,0.00,0.00,0.00,0.00,0.00,0.00,0.00,0.00,0.00,0.00,0.00,0.00,0.00,0.00,0.00,0.00,0.00,0.00,0.00,0.00,0.00,0.00,0.00,0.00,0.00,0.00,0.00,0.00,0.00,0.00,0.00,0.00,0.00,0.00,0.00,0.00,0.00,0.00,0.00,0.00,0.00,1300.50,1319.76,1328.86,1326.20,1309.80,1293.32,1289.61,1288.59,1289.19,1285.37,1280.96,1278.92,1280.44,1284.40,1286.18,1290.02,1289.61,1289.54,1285.38,1282.52,1281.90,1285.22,1294.52,1302.23,1311.79,1325.28,1340.52,1359.55,1383.80,1412.65,1428.65,1435.15,1435.07,1437.09,1438.96,1439.07,1438.20,1437.72,1438.29,1438.35,1439.34,1441.21,1442.06,1441.58,1442.07,1440.81,1442.94,1443.82,1446.45,1446.76,1448.44,1449.74,1449.67,1448.55,1447.35,1445.82,1446.19,1446.32,1447.03,1448.29,1448.70,1449.43,1449.31,1449.68,1449.65,1449.03,1448.89,1449.60,1451.92,1453.10,1452.84,1449.83,1449.40,1450.12,1451.83,1452.26,1451.92,1452.83,1454.70,1455.54,1455.02,1454.71,1455.19,1456.68,1456.78,1456.16,1454.59,1453.87,1455.96,1456.72,1456.65,1455.14,1454.63,1455.95,1456.04,1458.45,1457.69,1459.01,1458.65,1459.72,1459.71,1458.95,1459.53,1460.08,1459.93,1459.89,1459.73,1459.98,1459.77,1459.48,1461.28,1462.15,1463.64,1463.81,1463.88,1463.00,1463.64,1463.91,1465.39,1464.05,1463.33,1463.71,1465.12,1466.40,1465.68,1465.31,1465.19,1465.27,1465.35,1465.28,1465.89,1465.88,1468.18,1468.88,1469.70,1468.16,1468.04,1467.21,1467.62,1468.23,1470.51,1470.72,1469.39,1468.11,1468.17,1468.87,1469.77,1470.97,1471.23,1472.06,1472.28,1473.00,1473.12,1473.42,1474.32,1474.70,1474.87,1474.39,1474.21,1473.89,1475.11,1475.60,1477.19,1476.94,1476.98,1476.90,1478.17,1478.28,1478.34,1478.37,1478.51,1478.39,1478.47,1479.09,1479.49,1479.43,1479.98,1481.07,1480.86,1480.86,1480.47,1481.70,1482.27,1483.18,1483.72,1484.15,1484.44,1484.94,1485.78,1485.92,1486.48,1487.17,1487.64,1487.44,1487.14,1487.78,1488.14,1488.30,1487.49,1488.29,1488.60,1489.84,1489.03,1490.80,1492.02,1493.32,1492.16,1491.12,1490.78,1490.69,1490.82,1491.24,1493.22,1493.65,1494.11,1493.41,1493.57,1494.04,1494.56,1496.41,1497.10,1498.12,1498.44,1498.36,1497.98,1497.06,1498.29,1500.00,1499.75,1498.80,1498.79,1502.01,1503.61,1504.28,1502.67,1505.15,1505.92,1507.51,1509.09,1517.61,1527.27,1540.23,1543.58,1546.44,1543.20,1544.65,1553.90,1583.71,1592.55,1593.25,0.00,1586.84,1591.97,0.00,0.00,503.21,532.16,538.86,520.83,0.00,0.00,512.02,530.40,546.07,565.41,578.30,585.86,586.35,589.70,590.68,585.83,582.90,579.04,575.98,569.40,562.15,559.75,559.11,557.73,548.78,544.66,537.03,532.23,528.96,520.03,506.64,0.00,0.00,0.00,0.00,0.00,1570.13,1544.41,1537.83,1532.48,1529.68,1526.06,1525.17,1525.39,1526.59,1526.78,1525.35,1525.09,1525.41,1526.16,1526.59,1525.10,1527.09,1528.37,1530.06,1526.99,1523.39,1522.05,1523.59,1524.64,1526.41,1526.42,1526.96,1523.11,1522.01,1521.86,1524.14,1521.57,1520.99,1518.22,1519.19,0.00,0.00,0.00,0.00,0.00,0.00,0.00,0.00,0.00,0.00,0.00,0.00,0.00,0.00,0.00,0.00,0.00,0.00,0.00,0.00,0.00,0.00,0.00,0.00,0.00,0.00,0.00,0.00,0.00,0.00,0.00,0.00,0.00,0.00,0.00,0.00,0.00,0.00,0.00,0.00,0.00,0.00,0.00,0.00,0.00,0.00,0.00,0.00,0.00,0.00,0.00,0.00,0.00,0.00,0.00,0.00,0.00,0.00,0.00,0.00,0.00,0.00,0.00,0.00,0.00,0.00,0.00,0.00,0.00,0.00,0.00,0.00,0.00,0.00,0.00,0.00,0.00,0.00,0.00,0.00,0.00,0.00,0.00,0.00,0.00,0.00,0.00,0.00,0.00,0.00,0.00,0.00,0.00,0.00,0.00,0.00,0.00,0.00,0.00,0.00,0.00,0.00,0.00,0.00,0.00,0.00,0.00,0.00,0.00,0.00,0.00,0.00,0.00,0.00,0.00,0.00,0.00,0.00,0.00,0.00,0.00,0.00,0.00,0.00,0.00
0.00,0.00,0.00,0.00,0.00,0.00,0.00,0.00,0.00,0.00,0.00,0.00,0.00,0.00,0.00,0.00,0.00,0.00,0.00,0.00,0.00,0.00,0.00,0.00,0.00,0.00,0.00,0.00,0.00,0.00,0.00,0.00,0.00,0.00,0.00,0.00,0.00,0.00,0.00,0.00,0.00,0.00,0.00,1277.22,1308.29,1327.21,1333.55,1326.51,1308.96,1294.94,1287.60,1286.64,1286.59,1280.31,1279.27,1280.32,1283.50,1284.88,1286.43,1285.60,1283.78,1281.16,1279.31,1280.80,1285.30,1294.50,1300.88,1310.13,1324.02,1340.74,1359.70,1385.47,1414.45,1430.25,1436.00,1436.81,1438.49,1440.38,1441.93,1441.25,1440.77,1439.74,1440.66,1441.63,1443.86,1443.96,1444.16,1444.24,1443.39,1444.66,1444.77,1444.98,1445.68,1448.14,1451.34,1451.06,1449.23,1448.97,1447.26,1448.51,1447.80,1448.12,1448.65,1449.08,1450.74,1451.72,1451.83,1450.76,1449.78,1450.66,1450.91,1452.05,1453.08,1453.72,1452.50,1451.72,1452.00,1451.98,1452.52,1453.09,1455.22,1456.01,1457.27,1457.05,1457.89,1458.11,1458.36,1457.96,1456.01,1455.52,1454.72,1457.44,1457.35,1458.74,1457.61,1457.75,1457.48,1457.50,1459.10,1459.54,1459.66,1459.82,1460.75,1462.72,1461.90,1461.77,1460.81,1460.64,1459.95,1460.45,1461.50,1461.79,1461.16,1461.17,1462.11,1463.56,1464.74,1464.75,1464.47,1465.06,1464.48,1465.61,1463.84,1464.47,1463.88,1465.70,1465.95,1465.19,1464.69,1464.73,1466.46,1466.88,1467.19,1466.90,1466.30,1467.48,1467.64,1468.73,1467.73,1468.01,1467.22,1467.58,1468.14,1470.49,1470.82,1471.55,1471.45,1472.19,1470.54,1469.97,1470.27,1470.75,1471.53,1472.13,1472.65,1473.47,1473.39,1475.09,1475.05,1475.47,1474.92,1475.60,1475.09,1476.13,1475.96,1477.61,1478.11,1478.87,1478.67,1479.07,1479.31,1479.90,1479.94,1478.67,1478.08,1478.29,1479.40,1480.44,1479.64,1480.27,1480.08,1481.03,1480.90,1481.28,1482.81,1483.48,1484.84,1484.53,1485.00,1484.31,1484.86,1485.94,1485.91,1486.43,1487.12,1487.13,1486.76,1486.42,1488.92,1488.69,1488.61,1487.05,1488.50,1489.23,1489.86,1489.53,1490.25,1491.60,1492.44,1492.10,1491.64,1490.91,1490.05,1490.45,1491.46,1493.26,1493.53,1494.62,1495.01,1495.51,1495.53,1496.07,1498.26,1499.03,1499.19,1498.62,1498.77,1498.31,1497.48,1498.92,1500.68,1500.29,1498.23,1498.42,1502.05,1504.81,1506.81,1506.49,1510.09,1512.09,1513.43,1514.81,0.00,1556.05,0.00,1569.92,1567.11,1569.88,1585.46,1600.96,0.00,0.00,0.00,504.50,0.00,0.00,0.00,0.00,541.90,547.97,546.40,534.19,528.68,534.87,569.41,585.66,598.94,605.99,609.68,608.60,608.82,608.05,607.41,604.44,602.65,598.98,594.23,583.83,576.14,571.79,572.52,573.71,570.16,563.30,550.19,548.12,552.02,549.78,528.73,524.38,524.42,508.43,0.00,0.00,0.00,0.00,1567.52,1546.81,1536.57,1531.33,1530.18,1527.51,1528.02,1527.07,1526.84,1525.97,1525.61,1525.44,1526.05,1526.69,1528.57,1529.21,1528.69,1526.57,1522.93,1520.77,1520.33,1520.66,1523.51,1524.80,1526.76,1523.31,1521.84,1522.76,1524.01,1521.01,1520.57,1518.47,0.00,0.00,0.00,0.00,0.00,0.00,0.00,0.00,0.00,0.00,0.00,0.00,0.00,0.00,0.00,0.00,0.00,0.00,0.00,0.00,0.00,0.00,0.00,0.00,0.00,0.00,0.00,0.00,0.00,0.00,0.00,0.00,0.00,0.00,0.00,0.00,0.00,0.00,0.00,0.00,0.00,0.00,0.00,0.00,0.00,0.00,0.00,0.00,0.00,0.00,0.00,0.00,0.00,0.00,0.00,0.00,0.00,0.00,0.00,0.00,0.00,0.00,0.00,0.00,0.00,0.00,0.00,0.00,0.00,0.00,0.00,0.00,0.00,0.00,0.00,0.00,0.00,0.00,0.00,0.00,0.00,0.00,0.00,0.00,0.00,0.00,0.00,0.00,0.00,0.00,0.00,0.00,0.00,0.00,0.00,0.00,0.00,0.00,0.00,0.00,0.00,0.00,0.00,0.00,0.00,0.00,0.00,0.00,0.00,0.00,0.00,0.00,0.00,0.00,0.00,0.00,0.00,0.00,0.00,0.00,0.00,0.00,0.00,0.00,0.00,0.00
0.00,0.00,0.00,0.00,0.00,0.00,0.00,0.00,0.00,0.00,0.00,0.00,0.00,0.00,0.00,0.00,0.00,0.00,0.00,0.00,0.00,0.00,0.00,0.00,0.00,0.00,0.00,0.00,0.00,0.00,0.00,0.00,0.00,0.00,0.00,0.00,0.00,0.00,0.00,0.00,0.00,0.00,0.00,0.00,1291.46,1323.98,1338.03,1340.65,1331.46,1312.86,1295.01,1289.03,1289.76,1286.85,1282.44,1282.89,1287.06,1288.40,1288.17,1285.45,1285.31,1285.30,1281.63,1282.32,1285.44,1295.52,1302.31,1314.07,1329.26,1344.86,1362.76,1389.43,1417.93,1432.96,1438.13,1439.80,1442.81,1442.99,1444.23,1443.63,1446.03,1444.88,1445.70,1445.10,1447.00,1446.45,1446.45,1446.37,1446.05,1447.90,1448.00,1448.41,1448.98,1451.38,1453.74,1453.32,1451.76,1451.87,1451.73,1453.90,1452.74,1451.58,1451.28,1452.80,1455.52,1457.08,1456.17,1453.37,1452.14,1453.44,1454.16,1454.90,1456.11,1457.31,1456.45,1455.69,1455.84,1455.86,1456.22,1456.51,1458.04,1457.59,1459.43,1460.27,1460.97,1460.43,1460.43,1461.35,1458.86,1457.26,1456.48,1459.63,1459.53,1460.31,1460.71,1462.45,1463.30,1462.86,1463.92,1463.55,1462.39,1462.55,1463.88,1466.18,1464.15,1463.28,1463.39,1464.29,1464.09,1463.80,1465.72,1465.62,1465.41,1464.20,1465.63,1466.39,1467.24,1467.00,1467.96,1469.19,1468.89,1468.48,1467.50,1468.05,1468.03,1468.83,1469.44,1468.76,1468.60,1468.27,1470.79,1471.58,1471.75,1470.69,1470.03,1471.36,1472.04,1472.96,1472.53,1473.19,1473.32,1472.78,1472.21,1473.22,1473.99,1475.60,1475.80,1477.09,1475.61,1475.50,1475.19,1475.11,1475.01,1474.81,1475.45,1476.07,1477.39,1478.59,1478.90,1479.08,1479.11,1480.18,1479.95,1481.39,1481.25,1481.32,1480.72,1481.88,1482.71,1483.43,1482.72,1482.51,1482.00,1481.02,1482.16,1482.96,1483.75,1484.06,1483.94,1484.32,1483.86,1484.60,1485.46,1486.28,1486.75,1486.95,1487.43,1487.69,1488.39,1488.67,1489.14,1490.27,1490.34,1490.53,1490.25,1490.19,1490.05,1489.85,1492.12,1492.13,1492.82,1490.90,1491.77,1493.30,1493.50,1494.35,1493.61,1494.98,1495.20,1495.63,1495.70,1494.44,1494.07,1495.03,1495.96,1496.75,1497.17,1498.32,1498.89,1498.13,1498.30,1499.15,1501.94,1502.84,1502.43,1501.87,1502.67,1502.30,1502.05,1503.95,1505.65,1504.85,1502.95,1503.52,1505.88,1509.30,1512.58,1517.15,1523.02,1530.74,1530.71,1533.14,1568.62,0.00,0.00,1603.84,1599.92,0.00,0.00,0.00,0.00,0.00,0.00,541.77,548.61,540.28,0.00,527.90,550.58,556.05,557.77,556.67,570.74,597.46,608.87,615.30,616.23,618.80,619.52,619.94,619.30,618.25,617.35,615.71,613.68,611.00,608.38,603.08,596.80,588.31,582.37,581.29,582.38,578.82,565.65,557.93,560.90,561.12,552.50,547.11,550.36,544.65,526.31,503.02,0.00,0.00,0.00,0.00,1567.45,1548.37,1543.69,1536.79,1532.65,1528.26,1528.73,1528.27,1528.83,1527.77,1529.50,1530.89,1532.31,1531.89,1530.30,1530.33,1529.65,1528.37,1527.25,1526.31,1528.37,1529.78,1530.74,1529.95,1527.76,1526.60,1526.52,1524.91,1525.94,1523.62,0.00,0.00,0.00,0.00,0.00,0.00,0.00,0.00,0.00,0.00,0.00,0.00,0.00,0.00,0.00,0.00,0.00,0.00,0.00,0.00,0.00,0.00,0.00,0.00,0.00,0.00,0.00,0.00,0.00,0.00,0.00,0.00,0.00,0.00,0.00,0.00,0.00,0.00,0.00,0.00,0.00,0.00,0.00,0.00,0.00,0.00,0.00,0.00,0.00,0.00,0.00,0.00,0.00,0.00,0.00,0.00,0.00,0.00,0.00,0.00,0.00,0.00,0.00,0.00,0.00,0.00,0.00,0.00,0.00,0.00,0.00,0.00,0.00,0.00,0.00,0.00,0.00,0.00,0.00,0.00,0.00,0.00,0.00,0.00,0.00,0.00,0.00,0.00,0.00,0.00,0.00,0.00,0.00,0.00,0.00,0.00,0.00,0.00,0.00,0.00,0.00,0.00,0.00,0.00,0.00,0.00,0.00,0.00,0.00,0.00,0.00,0.00,0.00,0.00,0.00,0.00,0.00,0.00,0.00,0.00,0.00,0.00,0.00,0.00,0.00,0.00
0.00,0.00,0.00,0.00,0.00,0.00,0.00,0.00,0.00,0.00,0.00,0.00,0.00,0.00,0.00,0.00,0.00,0.00,0.00,0.00,0.00,0.00,0.00,0.00,0.00,0.00,0.00,0.00,0.00,0.00,0.00,0.00,0.00,0.00,0.00,0.00,0.00,0.00,0.00,0.00,0.00,0.00,0.00,0.00,0.00,1312.30,1333.10,1344.01,1347.59,1335.51,1309.24,1291.01,1288.86,1288.60,1282.56,1283.50,1284.36,1287.57,1284.85,1283.13,1281.84,1282.24,1280.22,1281.29,1285.19,1293.65,1304.35,1316.60,1329.92,1342.92,1361.60,1389.73,1418.96,1434.11,1439.69,1441.48,1443.20,1442.45,1444.31,1444.83,1447.87,1446.84,1447.58,1447.25,1448.43,1447.41,1448.29,1447.49,1446.99,1446.73,1447.05,1448.32,1449.83,1451.81,1453.68,1453.70,1453.06,1453.14,1453.01,1454.71,1454.01,1453.34,1452.85,1453.37,1455.31,1456.63,1456.23,1454.20,1453.92,1454.59,1454.49,1454.49,1455.79,1457.49,1457.71,1457.57,1457.80,1457.17,1457.60,1456.56,1457.63,1456.66,1458.89,1459.89,1461.58,1461.99,1461.73,1461.29,1458.86,1457.21,1457.36,1460.10,1459.74,1460.17,1459.90,1462.81,1462.89,1463.46,1463.34,1463.47,1462.74,1463.30,1464.67,1466.33,1465.08,1463.46,1463.18,1464.83,1465.92,1465.47,1466.20,1466.06,1466.08,1465.30,1466.02,1466.86,1467.31,1467.87,1468.70,1470.03,1469.50,1468.87,1467.50,1468.64,1468.76,1469.50,1469.06,1469.02,1468.98,1469.89,1471.48,1472.81,1471.97,1471.23,1471.35,1472.72,1472.94,1472.33,1472.67,1473.78,1474.70,1473.92,1473.50,1473.27,1473.81,1475.73,1476.84,1478.56,1476.52,1476.12,1476.33,1476.88,1477.09,1476.22,1475.55,1476.45,1477.83,1480.38,1480.13,1480.68,1480.93,1482.20,1480.70,1480.77,1480.51,1480.98,1480.95,1481.69,1482.63,1483.54,1483.70,1483.59,1482.57,1481.28,1482.20,1483.76,1484.95,1485.66,1485.09,1485.92,1484.98,1485.34,1485.10,1486.96,1487.43,1487.81,1488.00,1489.22,1490.46,1490.24,1489.52,1489.72,1490.25,1490.98,1491.28,1491.70,1491.86,1490.95,1492.11,1492.49,1493.96,1493.18,1493.85,1494.47,1494.47,1495.55,1495.42,1496.99,1497.14,1496.83,1496.61,1495.23,1495.54,1496.10,1497.08,1499.02,1498.94,1499.71,1498.56,1498.93,1499.43,1501.33,1502.68,1502.55,1501.49,1502.71,1505.26,1506.48,1506.56,1507.95,1507.42,1506.96,1505.05,1507.46,1508.71,1514.79,1522.58,1534.46,1544.27,1551.55,1556.21,1574.71,0.00,0.00,500.46,0.00,0.00,0.00,0.00,0.00,502.99,529.73,558.18,567.66,572.40,571.15,555.67,548.29,556.87,566.19,577.57,592.52,608.29,616.39,618.40,620.27,620.87,621.97,624.11,625.29,625.34,623.09,622.94,622.01,621.43,617.59,615.25,610.88,610.22,604.42,598.34,589.73,587.41,584.14,579.26,572.48,570.20,565.97,556.79,550.82,556.80,558.41,549.14,524.85,505.52,0.00,0.00,0.00,0.00,0.00,1556.28,1545.30,1537.61,1532.90,1531.83,1530.84,1531.41,1530.24,1532.09,1533.90,1535.16,1534.44,1532.53,1531.56,1530.91,1528.86,1528.22,1528.05,1530.50,1531.07,1529.62,1528.44,1527.64,1527.21,1527.49,1527.19,1529.01,1525.83,0.00,0.00,0.00,0.00,0.00,0.00,0.00,0.00,0.00,0.00,0.00,0.00,0.00,0.00,0.00,0.00,0.00,0.00,0.00,0.00,0.00,0.00,0.00,0.00,0.00,0.00,0.00,0.00,0.00,0.00,0.00,0.00,0.00,0.00,0.00,0.00,0.00,0.00,0.00,0.00,0.00,0.00,0.00,0.00,0.00,0.00,0.00,0.00,0.00,0.00,0.00,0.00,0.00,0.00,0.00,0.00,0.00,0.00,0.00,0.00,0.00,0.00,0.00,0.00,0.00,0.00,0.00,0.00,0.00,0.00,0.00,0.00,0.00,0.00,0.00,0.00,0.00,0.00,0.00,0.00,0.00,0.00,0.00,0.00,0.00,0.00,0.00,0.00,0.00,0.00,0.00,0.00,0.00,0.00,0.00,0.00,0.00,0.00,0.00,0.00,0.00,0.00,0.00,0.00,0.00,0.00,0.00,0.00,0.00,0.00,0.00,0.00,0.00,0.00,0.00,0.00,0.00,0.00,0.00,0.00,0.00,0.00,0.00,0.00,0.00,0.00
0.00,0.00,0.00,0.00,0.00,0.00,0.00,0.00,0.00,0.00,0.00,0.00,0.00,0.00,0.00,0.00,0.00,0.00,0.00,0.00,0.00,0.00,0.00,0.00,0.00,0.00,0.00,0.00,0.00,0.00,0.00,0.00,0.00,0.00,0.00,0.00,0.00,0.00,0.00,0.00,0.00,0.00,0.00,0.00,0.00,1283.89,1326.00,1342.61,1353.14,1350.61,1332.25,1306.68,1293.35,1290.44,1283.64,1283.04,1283.70,1286.66,1286.10,1284.94,1283.72,1282.57,1280.95,1281.04,1285.85,1296.41,1308.58,1319.76,1330.74,1344.60,1364.39,1393.89,1423.92,1439.95,1445.05,1444.75,1446.78,1446.24,1446.75,1447.30,1450.38,1450.39,1450.47,1449.68,1451.67,1451.64,1452.27,1450.32,1448.89,1448.30,1450.43,1453.41,1455.00,1456.01,1456.91,1456.49,1455.51,1454.75,1456.10,1458.23,1457.15,1456.54,1455.52,1457.30,1457.77,1458.58,1458.12,1456.24,1456.30,1456.80,1457.72,1457.62,1459.15,1460.26,1460.67,1460.04,1459.96,1459.67,1460.81,1460.34,1461.23,1459.39,1460.98,1461.07,1462.80,1463.26,1463.50,1462.83,1461.53,1460.75,1461.47,1463.46,1462.77,1463.15,1464.02,1466.49,1466.43,1465.81,1466.82,1466.43,1466.66,1466.25,1468.00,1468.91,1468.93,1467.17,1467.53,1468.19,1469.80,1468.59,1469.04,1469.78,1469.65,1469.60,1469.53,1470.15,1470.18,1471.01,1472.42,1473.86,1473.67,1472.30,1470.85,1471.17,1471.88,1471.96,1472.16,1471.76,1472.82,1473.74,1475.89,1476.55,1475.56,1474.88,1475.28,1476.42,1476.76,1476.59,1477.47,1478.68,1479.75,1478.56,1478.35,1477.34,1478.06,1478.36,1478.45,1479.70,1478.68,1479.48,1480.01,1481.15,1481.76,1481.19,1480.69,1480.33,1481.58,1483.31,1483.96,1483.93,1484.02,1484.62,1483.89,1483.97,1483.28,1483.24,1484.18,1485.49,1486.74,1486.95,1486.90,1486.66,1485.99,1485.96,1486.75,1488.42,1489.12,1489.64,1489.87,1490.20,1490.36,1489.61,1489.91,1491.32,1491.35,1491.51,1491.44,1492.36,1493.83,1493.80,1494.39,1493.92,1494.76,1495.29,1495.65,1496.51,1496.30,1495.49,1495.18,1495.54,1497.79,1497.67,1498.60,1498.65,1498.13,1499.36,1499.50,1501.09,1500.55,1500.18,1500.65,1500.14,1501.03,1501.17,1502.73,1503.97,1503.73,1502.87,1501.99,1502.16,1503.07,1504.76,1505.95,1505.44,1504.93,1506.86,1509.54,1510.66,1511.25,1512.37,1513.13,1512.64,1512.69,1514.19,1518.74,1533.60,1556.60,1584.81,1581.94,1582.21,1587.69,0.00,558.48,549.27,535.14,537.65,544.37,550.82,543.05,538.75,542.63,565.01,581.62,592.68,592.35,585.90,573.42,566.42,573.52,592.10,604.54,616.20,620.43,623.33,623.62,626.30,627.64,629.38,630.01,631.04,631.10,630.53,630.50,629.83,629.08,625.58,623.51,620.41,620.86,617.41,612.53,604.13,598.48,594.98,589.83,585.03,577.56,570.09,556.65,552.47,552.24,553.31,546.40,540.25,525.28,513.81,0.00,0.00,0.00,0.00,0.00,1562.78,1557.36,1546.64,1540.83,1538.95,1538.85,1537.86,1537.32,1536.75,1537.09,1536.64,1536.27,1535.39,1535.21,1534.33,1534.38,1534.09,1534.91,1535.14,1534.10,1535.48,1533.07,1532.69,1531.83,1532.99,1531.26,1528.55,0.00,0.00,0.00,0.00,0.00,0.00,0.00,0.00,0.00,0.00,0.00,0.00,0.00,0.00,0.00,0.00,0.00,0.00,0.00,0.00,0.00,0.00,0.00,0.00,0.00,0.00,0.00,0.00,0.00,0.00,0.00,0.00,0.00,0.00,0.00,0.00,0.00,0.00,0.00,0.00,0.00,0.00,0.00,0.00,0.00,0.00,0.00,0.00,0.00,0.00,0.00,0.00,0.00,0.00,0.00,0.00,0.00,0.00,0.00,0.00,0.00,0.00,0.00,0.00,0.00,0.00,0.00,0.00,0.00,0.00,0.00,0.00,0.00,0.00,0.00,0.00,0.00,0.00,0.00,0.00,0.00,0.00,0.00,0.00,0.00,0.00,0.00,0.00,0.00,0.00,0.00,0.00,0.00,0.00,0.00,0.00,0.00,0.00,0.00,0.00,0.00,0.00,0.00,0.00,0.00,0.00,0.00,0.00,0.00,0.00,0.00,0.00,0.00,0.00,0.00,0.00,0.00,0.00,0.00,0.00,0.00,0.00,0.00,0.00,0.00,0.00
0.00,0.00,0.00,0.00,0.00,0.00,0.00,0.00,0.00,0.00,0.00,0.00,0.00,0.00,0.00,0.00,0.00,0.00,0.00,0.00,0.00,0.00,0.00,0.00,0.00,0.00,0.00,0.00,0.00,0.00,0.00,0.00,0.00,0.00,0.00,0.00,0.00,0.00,0.00,0.00,0.00,0.00,0.00,0.00,0.00,1249.95,1292.15,1334.16,1349.70,1354.78,1346.40,1323.86,1299.92,1286.11,1280.35,1280.38,1279.83,1282.94,1282.33,1282.19,1279.82,1278.48,1279.34,1280.78,1285.25,1292.83,1305.58,1316.73,1328.81,1342.31,1362.72,1393.90,1427.69,1443.63,1447.61,1447.73,1449.84,1448.85,1449.06,1449.24,1451.24,1451.51,1450.78,1450.65,1451.71,1453.18,1453.52,1451.34,1448.89,1448.72,1451.37,1454.28,1455.32,1456.73,1457.78,1458.46,1457.27,1456.04,1454.53,1455.28,1455.40,1457.31,1457.42,1458.68,1458.77,1458.94,1458.32,1457.01,1457.54,1457.94,1458.94,1457.65,1459.48,1460.29,1462.63,1461.61,1461.30,1459.95,1460.28,1460.03,1461.11,1460.60,1461.54,1461.60,1462.94,1463.55,1463.71,1463.11,1462.26,1462.82,1463.86,1465.06,1464.82,1464.94,1465.39,1465.85,1465.28,1465.20,1466.71,1467.70,1468.61,1467.75,1468.88,1469.22,1469.69,1469.12,1468.86,1469.20,1468.74,1468.08,1468.60,1470.18,1470.08,1470.14,1470.38,1471.68,1471.55,1471.62,1472.32,1473.68,1474.15,1473.46,1472.24,1472.72,1473.41,1473.00,1472.38,1472.74,1474.47,1474.94,1475.75,1476.08,1475.95,1476.27,1476.82,1478.04,1477.35,1477.07,1477.98,1479.36,1479.98,1478.94,1479.31,1478.79,1478.60,1477.90,1478.56,1479.72,1479.24,1479.57,1480.55,1482.13,1482.27,1481.82,1481.45,1481.99,1482.36,1483.77,1483.95,1484.55,1484.64,1485.22,1484.86,1484.18,1483.44,1484.30,1486.49,1487.85,1487.31,1486.92,1487.02,1488.38,1488.41,1488.73,1487.88,1488.95,1489.98,1491.31,1490.23,1490.16,1490.12,1490.62,1490.34,1491.51,1492.13,1492.65,1493.68,1494.02,1495.26,1493.98,1493.73,1493.25,1494.16,1495.87,1496.07,1496.54,1496.67,1497.12,1496.94,1496.99,1499.01,1499.51,1500.02,1498.75,1498.15,1499.48,1500.39,1501.77,1501.14,1501.41,1502.51,1502.85,1502.99,1502.56,1503.25,1504.23,1503.33,1503.25,1503.21,1505.01,1505.35,1506.29,1506.11,1505.38,1505.79,1508.00,1509.89,1510.73,1510.47,1511.48,1512.48,1514.04,1517.08,1523.60,1541.29,1566.68,1606.88,0.00,0.00,1610.03,0.00,570.74,575.54,571.92,568.01,569.21,576.65,575.52,572.23,564.23,569.48,581.79,592.14,599.59,596.94,589.09,582.31,582.04,594.08,605.49,614.23,621.05,623.47,624.13,624.30,625.79,628.59,629.51,629.84,629.37,629.96,628.81,628.80,627.92,628.57,626.40,624.95,622.79,623.49,622.21,618.92,611.99,605.75,601.03,595.99,590.70,582.78,568.66,553.34,551.73,554.86,554.45,547.30,545.83,536.59,521.14,500.85,0.00,0.00,513.49,0.00,0.00,0.00,1577.33,1559.82,1552.41,1547.94,1544.58,1541.18,1538.39,1536.39,1537.11,1538.11,1536.78,1535.79,1533.60,1535.34,1535.26,1538.25,1536.28,1534.11,1532.78,1530.48,1532.63,1531.70,1533.19,1529.55,0.00,0.00,0.00,0.00,0.00,0.00,0.00,0.00,0.00,0.00,0.00,0.00,0.00,0.00,0.00,0.00,0.00,0.00,0.00,0.00,0.00,0.00,0.00,0.00,0.00,0.00,0.00,0.00,0.00,0.00,0.00,0.00,0.00,0.00,0.00,0.00,0.00,0.00,0.00,0.00,0.00,0.00,0.00,0.00,0.00,0.00,0.00,0.00,0.00,0.00,0.00,0.00,0.00,0.00,0.00,0.00,0.00,0.00,0.00,0.00,0.00,0.00,0.00,0.00,0.00,0.00,0.00,0.00,0.00,0.00,0.00,0.00,0.00,0.00,0.00,0.00,0.00,0.00,0.00,0.00,0.00,0.00,0.00,0.00,0.00,0.00,0.00,0.00,0.00,0.00,0.00,0.00,0.00,0.00,0.00,0.00,0.00,0.00,0.00,0.00,0.00,0.00,0.00,0.00,0.00,0.00,0.00,0.00,0.00,0.00,0.00,0.00,0.00,0.00,0.00,0.00,0.00,0.00,0.00,0.00,0.00,0.00,0.00,0.00,0.00,0.00,0.00
0.00,0.00,0.00,0.00,0.00,0.00,0.00,0.00,0.00,0.00,0.00,0.00,0.00,0.00,0.00,0.00,0.00,0.00,0.00,0.00,0.00,0.00,0.00,0.00,0.00,0.00,0.00,0.00,0.00,0.00,0.00,0.00,0.00,0.00,0.00,0.00,0.00,0.00,0.00,0.00,0.00,0.00,0.00,0.00,0.00,0.00,1273.60,1320.61,1344.78,1356.03,1353.07,1339.69,1312.88,1289.29,1278.59,1277.23,1278.99,1280.15,1281.55,1280.41,1278.27,1278.43,1281.22,1282.27,1284.58,1291.21,1304.81,1319.00,1333.13,1348.16,1367.98,1402.77,1435.29,1448.22,1450.53,1451.08,1453.93,1453.66,1454.37,1454.25,1455.47,1454.85,1453.89,1453.42,1455.06,1457.32,1457.29,1455.57,1453.52,1453.98,1456.63,1458.91,1460.68,1461.36,1460.82,1460.12,1459.39,1459.51,1458.99,1458.99,1459.56,1460.62,1461.65,1462.63,1462.74,1462.68,1462.00,1461.74,1462.41,1463.26,1463.89,1461.60,1461.94,1462.76,1464.88,1464.14,1464.21,1463.74,1463.62,1463.85,1465.54,1465.48,1465.79,1464.92,1465.29,1465.01,1465.31,1465.35,1465.12,1466.19,1466.78,1467.92,1467.90,1468.64,1468.81,1468.95,1469.26,1469.39,1470.73,1471.10,1471.44,1470.71,1471.07,1470.95,1471.20,1471.83,1473.00,1473.09,1471.86,1470.64,1471.97,1473.71,1473.53,1472.75,1474.40,1475.57,1475.55,1474.78,1475.83,1476.85,1477.73,1476.60,1476.35,1476.14,1477.87,1477.28,1476.58,1476.20,1478.38,1478.33,1479.04,1478.00,1479.39,1480.00,1481.89,1482.26,1481.50,1480.82,1481.23,1482.32,1483.10,1482.68,1482.26,1481.66,1481.88,1482.34,1482.40,1482.23,1481.77,1482.68,1483.41,1485.30,1485.21,1485.49,1485.36,1485.74,1486.11,1486.48,1487.48,1488.21,1488.10,1487.82,1487.62,1487.19,1486.88,1487.81,1489.73,1491.53,1491.29,1491.79,1491.37,1491.68,1491.39,1491.61,1492.04,1492.44,1493.41,1494.55,1493.97,1493.94,1494.28,1495.03,1495.06,1494.25,1494.38,1494.51,1496.51,1497.11,1498.12,1497.07,1497.39,1497.60,1498.65,1499.72,1499.41,1499.02,1499.84,1500.07,1501.45,1500.81,1502.66,1502.02,1502.39,1501.46,1500.69,1501.83,1502.54,1503.60,1502.76,1503.55,1504.64,1505.59,1505.76,1506.11,1507.39,1507.20,1506.84,1506.04,1506.86,1508.38,1508.69,1509.93,1510.14,1510.83,1511.70,1512.44,1512.45,1513.12,1515.35,1518.95,1523.13,1527.31,1536.39,1554.52,1590.05,1616.21,0.00,0.00,0.00,0.00,0.00,591.73,594.55,597.16,605.97,607.56,604.31,598.32,593.46,587.05,591.66,594.24,598.38,602.03,599.52,596.60,590.50,596.88,605.51,615.95,622.04,626.35,628.19,629.04,628.72,631.39,632.94,634.45,632.80,632.99,632.87,632.58,631.34,630.37,630.32,629.67,629.04,628.04,626.90,624.79,622.36,619.21,616.09,611.02,604.22,596.75,586.47,576.78,562.74,563.36,566.31,562.53,552.90,538.32,531.34,525.05,501.31,0.00,0.00,526.33,550.75,562.06,0.00,0.00,0.00,1583.37,1564.04,1554.21,1547.91,1543.55,1540.58,1540.84,1541.46,1541.69,1540.91,1539.83,1541.18,1540.18,1542.17,1539.48,1539.24,1537.37,1534.96,1536.52,1534.99,1535.51,1531.53,0.00,0.00,0.00,0.00,0.00,0.00,0.00,0.00,0.00,0.00,0.00,0.00,0.00,0.00,0.00,0.00,0.00,0.00,0.00,0.00,0.00,0.00,0.00,0.00,0.00,0.00,0.00,0.00,0.00,0.00,0.00,0.00,0.00,0.00,0.00,0.00,0.00,0.00,0.00,0.00,0.00,0.00,0.00,0.00,0.00,0.00,0.00,0.00,0.00,0.00,0.00,0.00,0.00,0.00,0.00,0.00,0.00,0.00,0.00,0.00,0.00,0.00,0.00,0.00,0.00,0.00,0.00,0.00,0.00,0.00,0.00,0.00,0.00,0.00,0.00,0.00,0.00,0.00,0.00,0.00,0.00,0.00,0.00,0.00,0.00,0.00,0.00,0.00,0.00,0.00,0.00,0.00,0.00,0.00,0.00,0.00,0.00,0.00,0.00,0.00,0.00,0.00,0.00,0.00,0.00,0.00,0.00,0.00,0.00,0.00,0.00,0.00,0.00,0.00,0.00,0.00,0.00,0.00,0.00,0.00,0.00,0.00,0.00,0.00,0.00,0.00,0.00
