0.00,0.00,0.00,0.00,0.00,0.00,0.00,0.00,0.00,0.00,0.00,0.00,0.00,0.00,0.00,0.00,0.00,0.00,0.00,0.00,0.00,0.00,0.00,0.00,0.00,1577.31,1614.48,1627.64,1631.18,1632.16,1636.09,1634.41,1637.03,1638.05,1643.61,1647.90,1650.75,1652.04,1652.62,1653.94,1656.67,1656.95,1657.96,1659.58,1659.97,1661.61,1661.81,1661.83,1660.64,1659.05,1661.33,1661.48,1663.42,1662.49,1663.76,1662.10,1660.67,1658.70,1655.86,1650.64,1643.36,1632.36,0.00,0.00,0.00,0.00,0.00,0.00,0.00,0.00,0.00,0.00,0.00,0.00,0.00,0.00,0.00,0.00,0.00,0.00,0.00,0.00,0.00,0.00,0.00,0.00,0.00,0.00,0.00,0.00,0.00,0.00,0.00,0.00,0.00,0.00,0.00,0.00,0.00,0.00,0.00,0.00,0.00,1662.16,1667.67,1670.38,1674.13,1676.98,1679.53,1674.37,1672.19,1664.58,0.00,0.00,0.00,1670.06,1674.78,1675.22,1680.84,1680.87,1679.87,1672.78,1663.59,1679.98,1687.23,1690.83,1692.41,1692.95,1694.10,1694.42,1695.28,1696.39,1698.07,1697.43,1696.77,1696.86,1698.86,1699.21,1699.04,1699.47,1700.99,1702.37,1702.14,1701.93,1702.68,1704.94,1706.40,1708.21,1707.03,1707.53,1706.17,1707.42,1707.66,1709.38,1710.18,1710.81,1709.39,1708.50,1710.41,1712.80,1714.67,1713.81,1713.58,1714.40,1715.21,1716.36,1714.64,1714.87,1715.80,1717.26,1716.45,1714.02,1714.09,1716.49,1719.12,1719.79,1719.63,1721.35,1721.62,1721.07,1721.58,1724.12,1724.75,1725.48,1725.17,1727.65,1727.75,1727.50,1726.98,1728.16,1729.08,1729.18,1729.21,1728.87,1729.05,1729.83,1732.53,1731.95,1730.81,1729.06,1730.78,1731.67,1731.75,1732.19,1733.13,1734.17,1734.40,1735.44,1734.87,1735.33,1735.32,1737.57,1738.67,1738.75,1740.10,1739.90,1740.26,1740.18,1741.32,1743.47,1744.65,1744.97,1744.03,1743.19,1743.99,1745.29,1745.24,1744.56,1744.24,1745.14,1745.82,1746.13,1747.20,1748.08,1747.94,1746.63,1746.09,1747.06,1749.11,1750.70,1752.43,1753.11,1752.82,1752.05,1753.09,1753.98,1754.78,1753.34,1753.94,1756.09,1756.23,1755.46,1754.88,1757.02,1757.97,1758.59,1758.69,1759.33,1758.66,1763.24,1767.08,0.00,0.00,0.00,0.00,0.00,0.00,0.00,0.00,0.00,0.00,696.55,702.88,700.21,696.73,692.18,687.35,681.60,677.16,674.83,672.58,667.44,664.75,660.60,659.34,658.75,658.69,656.84,653.82,651.85,651.15,650.02,650.41,650.56,650.40,648.79,648.96,650.27,650.48,650.10,649.94,651.91,651.13,651.01,650.58,651.81,653.30,653.74,653.08,651.80,652.59,654.46,657.41,658.12,659.40,659.15,661.44,662.72,663.19,664.09,664.83,667.20,668.33,670.37,671.14,671.50,672.23,673.18,674.34,674.51,675.74,677.45,679.84,680.30,681.96,685.16,689.30,694.48,699.95,709.02,713.76,717.06,717.92,716.86,714.23,706.26,696.20,672.88,0.00,0.00,0.00,0.00,0.00,0.00,0.00,0.00,0.00,0.00,0.00,0.00,0.00,0.00,0.00,0.00,0.00,0.00,0.00,0.00,0.00,0.00,0.00,0.00,0.00,0.00,0.00,0.00,0.00,0.00,0.00,0.00,0.00,0.00,0.00,0.00,0.00,0.00,0.00,0.00,0.00,0.00,0.00,0.00,0.00,0.00,0.00,0.00,0.00,0.00,0.00,0.00,0.00,0.00,0.00,0.00,0.00,0.00,0.00,0.00,0.00,0.00,0.00,0.00,0.00,0.00,0.00,0.00,0.00,0.00,0.00,0.00,0.00,0.00,0.00,0.00,0.00,0.00,0.00,0.00,0.00,0.00,0.00,0.00,0.00,0.00,0.00,0.00,0.00,0.00,0.00,0.00,0.00,0.00,0.00,0.00,0.00,0.00,0.00,0.00,0.00,0.00,0.00,0.00,0.00,0.00,0.00,0.00,0.00,0.00,0.00,0.00,0.00,0.00,0.00,0.00,0.00,0.00,0.00,0.00,0.00,0.00,0.00,0.00,0.00,0.00,0.00,0.00,0.00,0.00,0.00,0.00,0.00,0.00,0.00,0.00,0.00,0.00,0.00,0.00,0.00,0.00,0.00,0.00,0.00,0.00,0.00
0.00,0.00,0.00,0.00,0.00,0.00,0.00,0.00,0.00,0.00,0.00,0.00,0.00,0.00,0.00,0.00,0.00,0.00,0.00,0.00,0.00,0.00,0.00,0.00,0.00,0.00,1608.20,1627.92,1635.07,1636.45,1636.21,1633.90,1637.63,1639.25,1644.99,1649.03,1652.49,1654.57,1655.09,1657.51,1659.36,1661.19,1660.78,1661.96,1662.22,1664.36,1664.45,1664.12,1662.99,1663.01,1662.91,1663.34,1663.98,1664.16,1664.83,1664.18,1665.37,1665.01,1663.55,1661.43,1658.29,1653.36,1644.55,1633.46,0.00,0.00,0.00,0.00,0.00,0.00,0.00,0.00,0.00,0.00,0.00,0.00,0.00,0.00,0.00,0.00,0.00,0.00,0.00,0.00,0.00,0.00,0.00,0.00,0.00,0.00,0.00,0.00,0.00,0.00,0.00,0.00,0.00,0.00,0.00,0.00,0.00,0.00,0.00,0.00,1654.39,1662.08,1667.21,1672.47,1675.28,1670.13,1661.40,0.00,0.00,1631.12,1672.73,1677.34,1679.09,1680.61,1684.41,1685.56,1683.48,1676.89,0.00,1672.59,1684.50,1690.51,1692.97,1694.45,1695.06,1695.13,1696.03,1698.08,1699.00,1698.25,1697.57,1698.14,1699.60,1699.85,1700.96,1701.61,1702.81,1703.68,1704.09,1703.25,1704.17,1706.19,1707.75,1709.05,1708.34,1710.11,1708.89,1710.72,1710.12,1711.87,1711.25,1712.11,1712.20,1713.54,1714.27,1715.95,1716.66,1717.19,1717.82,1718.44,1719.55,1719.65,1719.47,1718.87,1719.16,1719.20,1718.45,1716.41,1717.19,1719.76,1722.75,1723.66,1723.81,1725.28,1725.53,1725.56,1726.69,1728.97,1729.21,1728.78,1727.27,1729.17,1729.20,1729.03,1728.78,1729.79,1731.17,1732.18,1733.85,1734.36,1733.58,1732.14,1734.23,1734.00,1734.28,1732.22,1733.89,1735.45,1736.88,1738.02,1739.04,1739.42,1739.19,1739.47,1739.43,1740.32,1740.87,1743.16,1743.32,1742.99,1744.38,1745.30,1746.20,1745.44,1745.39,1746.15,1746.63,1747.98,1747.89,1747.71,1748.32,1749.38,1750.19,1749.49,1750.32,1750.59,1751.14,1751.83,1751.21,1751.79,1750.95,1751.93,1751.83,1752.54,1753.83,1754.71,1756.82,1757.25,1757.87,1756.64,1758.65,1759.88,1760.68,1759.13,1759.20,1760.74,1760.81,1760.13,1760.04,1762.67,1762.90,1763.74,1762.78,1764.22,1766.19,1769.02,1771.61,0.00,0.00,0.00,0.00,0.00,0.00,0.00,0.00,0.00,0.00,697.79,705.49,705.30,701.81,696.47,690.29,684.49,680.42,678.23,676.98,673.41,668.82,665.76,663.82,663.96,662.09,660.32,656.31,654.37,652.38,652.99,653.59,655.68,653.98,652.67,651.87,653.81,653.53,654.18,653.91,656.48,654.93,654.32,652.77,652.34,653.76,654.86,655.07,655.06,655.68,658.57,659.99,660.89,661.41,661.56,661.97,663.70,664.25,666.52,666.84,670.06,671.21,673.75,673.67,674.09,674.25,676.02,677.25,677.45,678.50,680.28,682.71,682.71,684.24,688.23,692.85,698.41,703.09,712.13,716.52,721.23,721.91,721.88,716.94,705.88,686.14,522.04,0.00,0.00,0.00,0.00,0.00,0.00,0.00,0.00,0.00,0.00,0.00,0.00,0.00,0.00,0.00,0.00,0.00,0.00,0.00,0.00,0.00,0.00,0.00,0.00,0.00,0.00,0.00,0.00,0.00,0.00,0.00,0.00,0.00,0.00,0.00,0.00,0.00,0.00,0.00,0.00,0.00,0.00,0.00,0.00,0.00,0.00,0.00,0.00,0.00,0.00,0.00,0.00,0.00,0.00,0.00,0.00,0.00,0.00,0.00,0.00,0.00,0.00,0.00,0.00,0.00,0.00,0.00,0.00,0.00,0.00,0.00,0.00,0.00,0.00,0.00,0.00,0.00,0.00,0.00,0.00,0.00,0.00,0.00,0.00,0.00,0.00,0.00,0.00,0.00,0.00,0.00,0.00,0.00,0.00,0.00,0.00,0.00,0.00,0.00,0.00,0.00,0.00,0.00,0.00,0.00,0.00,0.00,0.00,0.00,0.00,0.00,0.00,0.00,0.00,0.00,0.00,0.00,0.00,0.00,0.00,0.00,0.00,0.00,0.00,0.00,0.00,0.00,0.00,0.00,0.00,0.00,0.00,0.00,0.00,0.00,0.00,0.00,0.00,0.00,0.00,0.00,0.00,0.00,0.00,0.00,0.00,0.00
0.00,0.00,0.00,0.00,0.00,0.00,0.00,0.00,0.00,0.00,0.00,0.00,0.00,0.00,0.00,0.00,0.00,0.00,0.00,0.00,0.00,0.00,0.00,0.00,0.00,0.00,1598.77,1622.64,1631.19,1631.50,1632.89,1633.35,1638.67,1639.72,1644.01,1645.57,1649.29,1653.24,1655.79,1656.74,1657.02,1658.36,1660.13,1661.40,1662.12,1663.24,1663.32,1662.35,1661.74,1661.45,1662.37,1662.33,1664.67,1664.83,1665.30,1663.77,1664.06,1663.99,1663.25,1662.95,1663.60,1662.78,1660.10,1654.38,1648.69,1637.79,0.00,0.00,0.00,0.00,0.00,0.00,0.00,0.00,0.00,0.00,0.00,0.00,0.00,0.00,0.00,0.00,0.00,0.00,0.00,0.00,0.00,0.00,0.00,0.00,0.00,0.00,0.00,0.00,0.00,0.00,0.00,0.00,0.00,0.00,0.00,0.00,0.00,0.00,0.00,0.00,0.00,1661.07,1666.43,1659.39,0.00,0.00,1624.96,1671.43,1675.98,1678.51,1679.97,1680.52,1682.97,1683.67,1682.65,1678.50,1645.21,1670.92,1680.12,1686.04,1689.22,1691.06,1690.87,1691.20,1692.63,1694.37,1695.51,1694.17,1694.77,1694.98,1696.38,1695.81,1696.51,1697.45,1699.10,1700.04,1701.46,1700.29,1701.36,1701.64,1703.04,1703.33,1703.99,1705.80,1705.65,1707.18,1706.67,1708.21,1707.71,1710.21,1711.87,1713.44,1712.99,1714.10,1714.40,1715.55,1716.50,1717.36,1717.13,1717.30,1718.57,1718.68,1718.57,1717.95,1718.07,1716.38,1717.94,1719.43,1722.65,1723.13,1724.43,1726.01,1726.76,1727.32,1728.83,1730.43,1731.15,1730.93,1729.14,1730.01,1729.74,1730.17,1729.92,1730.12,1731.81,1732.96,1734.07,1733.91,1733.81,1733.71,1736.30,1736.11,1736.51,1734.30,1735.01,1737.10,1739.34,1740.18,1739.94,1739.64,1740.31,1740.43,1740.99,1742.40,1742.92,1744.11,1744.03,1744.88,1747.30,1748.42,1748.47,1747.38,1746.46,1747.65,1747.81,1749.33,1749.37,1749.08,1749.82,1750.65,1753.13,1753.11,1753.81,1752.31,1752.46,1753.95,1754.22,1753.99,1752.65,1753.75,1754.27,1754.41,1754.73,1755.84,1757.82,1757.61,1757.68,1757.26,1759.99,1761.63,1762.17,1760.81,1760.81,1761.49,1761.59,1760.72,1762.44,1765.56,1766.03,1764.40,1762.08,1764.01,1766.68,1771.33,1774.48,0.00,0.00,0.00,0.00,0.00,0.00,0.00,0.00,0.00,0.00,691.66,702.61,705.03,702.43,696.39,689.59,681.76,678.66,675.44,676.55,673.90,669.29,665.13,662.49,663.24,661.76,660.81,657.41,655.02,651.68,651.13,651.77,654.83,654.24,653.27,652.44,654.77,654.55,655.54,654.81,656.47,654.79,653.50,652.66,651.58,652.54,652.52,653.75,653.76,655.34,656.96,658.27,658.35,658.38,659.29,659.82,661.75,663.07,664.59,664.35,666.55,668.56,670.49,671.00,672.01,674.40,674.92,675.19,674.04,675.93,677.97,681.41,682.04,685.02,688.00,692.47,696.82,702.50,709.97,715.67,719.17,721.34,720.45,714.29,693.42,0.00,506.26,0.00,0.00,0.00,0.00,0.00,0.00,0.00,0.00,0.00,0.00,0.00,0.00,0.00,0.00,0.00,0.00,0.00,0.00,0.00,0.00,0.00,0.00,0.00,0.00,0.00,0.00,0.00,0.00,0.00,0.00,0.00,0.00,0.00,0.00,0.00,0.00,0.00,0.00,0.00,0.00,0.00,0.00,0.00,0.00,0.00,0.00,0.00,0.00,0.00,0.00,0.00,0.00,0.00,0.00,0.00,0.00,0.00,0.00,0.00,0.00,0.00,0.00,0.00,0.00,0.00,0.00,0.00,0.00,0.00,0.00,0.00,0.00,0.00,0.00,0.00,0.00,0.00,0.00,0.00,0.00,0.00,0.00,0.00,0.00,0.00,0.00,0.00,0.00,0.00,0.00,0.00,0.00,0.00,0.00,0.00,0.00,0.00,0.00,0.00,0.00,0.00,0.00,0.00,0.00,0.00,0.00,0.00,0.00,0.00,0.00,0.00,0.00,0.00,0.00,0.00,0.00,0.00,0.00,0.00,0.00,0.00,0.00,0.00,0.00,0.00,0.00,0.00,0.00,0.00,0.00,0.00,0.00,0.00,0.00,0.00,0.00,0.00,0.00,0.00,0.00,0.00,0.00,0.00,0.00,0.00,0.00,0.00
0.00,0.00,0.00,0.00,0.00,0.00,0.00,0.00,0.00,0.00,0.00,0.00,0.00,0.00,0.00,0.00,0.00,0.00,0.00,0.00,0.00,0.00,0.00,0.00,0.00,0.00,1590.46,1620.95,1632.86,1634.08,1634.23,1635.31,1639.25,1641.84,1644.86,1645.60,1648.84,1653.79,1657.29,1658.10,1657.92,1659.97,1661.44,1662.13,1662.20,1663.03,1664.71,1665.13,1665.99,1665.95,1667.11,1666.46,1666.62,1666.50,1666.46,1666.49,1666.64,1668.86,1667.73,1667.20,1665.24,1665.91,1665.61,1663.87,1660.83,1656.42,1648.67,1636.40,0.00,0.00,0.00,0.00,0.00,0.00,0.00,0.00,0.00,0.00,0.00,0.00,0.00,0.00,0.00,0.00,0.00,0.00,0.00,0.00,0.00,0.00,0.00,0.00,0.00,0.00,0.00,0.00,0.00,0.00,0.00,0.00,0.00,0.00,0.00,0.00,0.00,0.00,0.00,0.00,1652.31,0.00,0.00,0.00,1668.76,1676.80,1680.50,1682.77,1682.35,1682.87,1685.60,1687.98,1685.18,1680.49,0.00,1672.26,1680.26,1685.67,1688.88,1691.65,1691.56,1692.36,1692.92,1696.46,1698.13,1698.40,1697.49,1697.49,1697.80,1697.30,1697.10,1698.84,1699.61,1700.55,1700.87,1701.16,1702.28,1702.20,1703.50,1702.77,1703.64,1704.82,1705.79,1707.08,1706.78,1708.63,1707.91,1709.69,1711.02,1713.53,1713.57,1714.44,1713.90,1715.08,1715.89,1716.87,1717.27,1717.68,1719.01,1719.59,1719.54,1720.19,1720.83,1722.06,1723.42,1723.50,1724.74,1725.51,1727.50,1728.53,1729.02,1730.06,1731.03,1731.54,1731.72,1731.38,1731.88,1732.23,1732.60,1732.15,1732.60,1732.61,1735.23,1734.89,1735.47,1735.57,1737.23,1738.84,1739.50,1739.21,1739.69,1739.89,1740.05,1741.25,1742.12,1743.35,1743.18,1743.95,1745.56,1746.50,1747.28,1748.86,1750.35,1751.28,1751.65,1751.05,1751.60,1750.26,1750.38,1749.70,1749.97,1750.43,1751.13,1752.93,1754.20,1755.15,1757.52,1758.00,1759.18,1757.92,1758.37,1757.91,1757.45,1758.89,1758.29,1758.25,1758.00,1760.76,1762.11,1761.17,1760.13,1760.01,1762.89,1763.21,1763.98,1763.07,1765.51,1767.39,1767.97,1767.28,1765.48,1766.16,1765.31,1765.22,1766.37,1769.19,1771.58,1770.42,1769.25,1770.48,1775.18,1776.94,1779.59,1777.85,0.00,0.00,0.00,0.00,0.00,0.00,0.00,0.00,0.00,686.05,704.85,707.82,706.04,700.32,694.41,686.03,682.09,678.90,680.65,679.22,675.21,670.60,667.58,666.64,665.43,664.78,661.97,659.83,656.70,655.75,655.33,656.99,657.14,656.82,655.71,656.67,656.81,658.66,658.55,659.46,658.82,658.27,657.30,656.00,655.96,656.15,656.65,658.11,659.12,660.82,660.49,660.24,659.88,660.74,661.97,664.27,666.54,667.94,667.04,668.19,669.41,670.66,672.17,674.15,677.19,677.48,678.07,678.22,679.94,681.08,683.29,684.24,687.61,691.83,696.61,702.56,707.54,713.26,718.91,721.80,724.25,721.29,712.47,666.18,0.00,530.93,0.00,0.00,0.00,0.00,0.00,0.00,0.00,0.00,0.00,0.00,0.00,0.00,0.00,0.00,0.00,0.00,0.00,0.00,0.00,0.00,0.00,0.00,0.00,0.00,0.00,0.00,0.00,0.00,0.00,0.00,0.00,0.00,0.00,0.00,0.00,0.00,0.00,0.00,0.00,0.00,0.00,0.00,0.00,0.00,0.00,0.00,0.00,0.00,0.00,0.00,0.00,0.00,0.00,0.00,0.00,0.00,0.00,0.00,0.00,0.00,0.00,0.00,0.00,0.00,0.00,0.00,0.00,0.00,0.00,0.00,0.00,0.00,0.00,0.00,0.00,0.00,0.00,0.00,0.00,0.00,0.00,0.00,0.00,0.00,0.00,0.00,0.00,0.00,0.00,0.00,0.00,0.00,0.00,0.00,0.00,0.00,0.00,0.00,0.00,0.00,0.00,0.00,0.00,0.00,0.00,0.00,0.00,0.00,0.00,0.00,0.00,0.00,0.00,0.00,0.00,0.00,0.00,0.00,0.00,0.00,0.00,0.00,0.00,0.00,0.00,0.00,0.00,0.00,0.00,0.00,0.00,0.00,0.00,0.00,0.00,0.00,0.00,0.00,0.00,0.00,0.00,0.00,0.00,0.00,0.00,0.00,0.00
0.00,0.00,0.00,0.00,0.00,0.00,0.00,0.00,0.00,0.00,0.00,0.00,0.00,0.00,0.00,0.00,0.00,0.00,0.00,0.00,0.00,0.00,0.00,0.00,0.00,0.00,1579.02,1615.47,1628.40,1630.70,1634.27,1636.91,1639.79,1642.24,1644.24,1645.49,1647.50,1650.68,1653.50,1652.68,1654.07,1655.55,1659.35,1660.63,1661.53,1661.80,1662.96,1664.00,1665.45,1664.74,1666.10,1664.80,1665.78,1666.14,1666.42,1665.09,1664.13,1666.39,1667.39,1666.39,1663.99,1663.96,1664.91,1664.78,1663.87,1662.28,1659.39,1654.71,1646.27,1634.88,0.00,0.00,0.00,0.00,0.00,0.00,0.00,0.00,0.00,0.00,0.00,0.00,0.00,0.00,0.00,0.00,0.00,0.00,0.00,0.00,0.00,0.00,0.00,0.00,0.00,0.00,0.00,0.00,0.00,0.00,0.00,0.00,0.00,0.00,0.00,0.00,0.00,0.00,0.00,0.00,0.00,1662.04,1672.27,1677.12,1680.24,1681.12,1681.15,1680.66,1684.03,1686.04,1682.88,1678.64,0.00,1674.82,1680.20,1685.18,1688.94,1690.47,1691.06,1691.31,1692.35,1695.09,1696.68,1696.48,1696.04,1697.27,1698.04,1697.95,1697.21,1699.38,1699.99,1700.86,1701.12,1699.87,1700.79,1700.44,1702.82,1702.15,1703.52,1704.18,1705.55,1705.12,1705.34,1706.95,1707.31,1709.23,1709.49,1712.04,1712.06,1712.82,1712.09,1712.66,1713.06,1713.94,1713.48,1714.40,1714.76,1715.78,1716.41,1717.82,1719.00,1719.66,1720.08,1719.87,1721.36,1722.58,1724.38,1725.23,1725.26,1726.40,1726.21,1727.11,1726.88,1727.09,1728.52,1730.40,1731.37,1731.42,1731.48,1731.76,1733.16,1733.01,1734.71,1734.89,1735.98,1736.42,1736.42,1738.24,1739.90,1741.46,1741.14,1740.10,1740.18,1741.86,1743.20,1742.25,1740.99,1741.06,1744.00,1741.44,1743.29,1743.56,1741.78,1741.94,1742.86,1749.76,1750.21,1747.85,1748.79,1749.77,1752.21,1753.72,1754.99,1758.11,1745.13,1746.28,1745.50,1759.81,1758.92,1758.85,1758.45,1758.48,1757.67,1758.71,1759.58,1759.09,1759.41,1758.74,1761.68,1762.49,1764.19,1764.22,1763.76,1764.34,1766.19,1767.39,1767.14,1767.06,1765.84,1766.31,1765.26,1766.90,1768.19,1770.41,1771.11,1770.02,1769.53,1769.49,1772.79,1774.85,1777.38,1779.33,0.00,0.00,0.00,0.00,0.00,0.00,0.00,0.00,0.00,0.00,700.68,705.05,705.38,699.89,692.28,684.20,680.97,679.22,680.90,679.19,675.99,670.18,666.59,664.26,663.33,662.45,660.52,658.11,657.20,655.48,655.67,655.03,655.55,654.42,653.51,653.30,653.21,654.47,655.25,656.16,656.65,657.39,658.64,658.55,657.36,656.94,656.64,656.93,656.94,658.38,659.43,658.93,658.60,658.92,661.59,663.63,666.09,666.28,666.86,667.57,668.98,668.34,670.95,672.85,676.75,675.60,676.14,676.73,679.29,680.21,682.69,684.45,688.01,691.37,696.59,702.78,709.74,714.34,718.69,719.95,722.47,717.79,700.47,625.48,575.72,560.06,536.85,0.00,520.96,0.00,0.00,0.00,0.00,0.00,0.00,0.00,0.00,0.00,0.00,0.00,0.00,0.00,0.00,0.00,0.00,0.00,0.00,0.00,0.00,0.00,0.00,0.00,0.00,0.00,0.00,0.00,0.00,0.00,0.00,0.00,0.00,0.00,0.00,0.00,0.00,0.00,0.00,0.00,0.00,0.00,0.00,0.00,0.00,0.00,0.00,0.00,0.00,0.00,0.00,0.00,0.00,0.00,0.00,0.00,0.00,0.00,0.00,0.00,0.00,0.00,0.00,0.00,0.00,0.00,0.00,0.00,0.00,0.00,0.00,0.00,0.00,0.00,0.00,0.00,0.00,0.00,0.00,0.00,0.00,0.00,0.00,0.00,0.00,0.00,0.00,0.00,0.00,0.00,0.00,0.00,0.00,0.00,0.00,0.00,0.00,0.00,0.00,0.00,0.00,0.00,0.00,0.00,0.00,0.00,0.00,0.00,0.00,0.00,0.00,0.00,0.00,0.00,0.00,0.00,0.00,0.00,0.00,0.00,0.00,0.00,0.00,0.00,0.00,0.00,0.00,0.00,0.00,0.00,0.00,0.00,0.00,0.00,0.00,0.00,0.00,0.00,0.00,0.00,0.00,0.00,0.00,0.00,0.00
0.00,0.00,0.00,0.00,0.00,0.00,0.00,0.00,0.00,0.00,0.00,0.00,0.00,0.00,0.00,0.00,0.00,0.00,0.00,0.00,0.00,0.00,0.00,0.00,0.00,0.00,0.00,1611.83,1628.97,1631.77,1635.21,1639.30,1641.10,1642.19,1644.39,1647.06,1649.81,1652.28,1654.99,1654.09,1655.02,1656.58,1659.64,1660.91,1661.83,1662.92,1664.51,1666.23,1667.77,1667.78,1667.62,1665.63,1666.03,1666.40,1667.39,1666.72,1667.69,1669.80,1670.65,1669.99,1666.77,1666.72,1665.78,1667.19,1666.21,1665.72,1663.67,1662.72,1659.60,1654.07,1645.90,1635.89,0.00,0.00,0.00,0.00,0.00,0.00,0.00,0.00,0.00,0.00,0.00,0.00,0.00,0.00,0.00,0.00,0.00,0.00,0.00,0.00,0.00,0.00,0.00,0.00,0.00,0.00,0.00,0.00,0.00,0.00,0.00,0.00,0.00,0.00,0.00,0.00,0.00,0.00,1649.74,1666.40,1675.20,1679.01,1680.61,1681.01,1680.76,1681.30,1684.01,1686.43,1682.03,1673.63,0.00,1678.15,1683.58,1687.76,1690.78,1692.07,1692.55,1693.00,1693.77,1696.23,1696.38,1697.21,1697.34,1699.23,1699.45,1700.53,1700.46,1702.19,1701.75,1702.28,1701.81,1701.21,1701.93,1702.89,1704.34,1704.87,1705.70,1707.77,1708.17,1708.14,1707.83,1710.42,1711.38,1712.68,1711.87,1713.32,1713.44,1713.38,1713.80,1714.38,1715.58,1715.76,1715.90,1716.64,1716.40,1717.43,1717.50,1719.46,1719.77,1720.65,1720.09,1719.91,1721.63,1722.92,1724.53,1724.76,1725.21,1725.99,1724.94,1725.75,1725.33,1726.54,1727.61,1729.81,1729.77,1731.04,1731.33,1732.70,1732.42,1732.34,1735.54,1736.46,1737.54,1736.24,1735.62,1737.69,1740.46,1741.89,1742.07,1740.65,1740.70,1741.40,1743.43,1743.59,1742.91,1742.86,1745.47,1742.43,1744.34,1746.15,1745.14,1744.79,1745.22,1751.63,1751.97,1749.44,1750.35,1751.46,1754.59,1756.52,1757.45,1761.51,1747.99,1748.94,1749.53,1765.30,1762.01,1761.66,1761.90,1761.73,1760.85,1761.43,1762.75,1761.88,1762.55,1763.44,1768.26,1767.74,1767.87,1767.77,1768.60,1769.77,1771.01,1771.84,1772.26,1773.49,1772.31,1772.49,1770.84,1773.51,1773.17,1773.82,1773.71,1774.91,1776.00,1776.03,1777.80,1777.44,1779.25,1781.74,0.00,0.00,0.00,0.00,0.00,0.00,0.00,0.00,0.00,0.00,700.02,706.04,708.17,703.06,694.18,688.94,686.92,686.94,686.03,683.62,679.89,674.01,668.74,664.51,662.60,662.62,661.87,660.88,660.55,659.28,658.23,656.06,654.79,653.86,652.02,651.07,651.65,653.59,654.54,654.34,656.01,659.83,661.55,662.82,661.36,661.92,660.16,660.39,659.75,661.66,661.97,661.62,661.13,660.96,663.54,664.78,667.59,668.76,671.71,673.04,673.84,673.15,675.58,677.89,679.64,679.11,679.89,682.27,683.38,683.50,684.11,687.13,690.56,696.09,700.74,708.02,714.46,718.63,721.59,723.28,724.70,719.77,692.50,623.95,595.85,580.51,0.00,510.44,502.33,0.00,0.00,0.00,0.00,0.00,0.00,0.00,0.00,0.00,0.00,0.00,0.00,0.00,0.00,0.00,0.00,0.00,0.00,0.00,0.00,0.00,0.00,0.00,0.00,0.00,0.00,0.00,0.00,0.00,0.00,0.00,0.00,0.00,0.00,0.00,0.00,0.00,0.00,0.00,0.00,0.00,0.00,0.00,0.00,0.00,0.00,0.00,0.00,0.00,0.00,0.00,0.00,0.00,0.00,0.00,0.00,0.00,0.00,0.00,0.00,0.00,0.00,0.00,0.00,0.00,0.00,0.00,0.00,0.00,0.00,0.00,0.00,0.00,0.00,0.00,0.00,0.00,0.00,0.00,0.00,0.00,0.00,0.00,0.00,0.00,0.00,0.00,0.00,0.00,0.00,0.00,0.00,0.00,0.00,0.00,0.00,0.00,0.00,0.00,0.00,0.00,0.00,0.00,0.00,0.00,0.00,0.00,0.00,0.00,0.00,0.00,0.00,0.00,0.00,0.00,0.00,0.00,0.00,0.00,0.00,0.00,0.00,0.00,0.00,0.00,0.00,0.00,0.00,0.00,0.00,0.00,0.00,0.00,0.00,0.00,0.00,0.00,0.00,0.00,0.00,0.00,0.00,0.00,0.00
0.00,0.00,0.00,0.00,0.00,0.00,0.00,0.00,0.00,0.00,0.00,0.00,0.00,0.00,0.00,0.00,0.00,0.00,0.00,0.00,0.00,0.00,0.00,0.00,0.00,0.00,0.00,1604.27,1622.39,1628.97,1634.26,1640.12,1642.54,1642.21,1643.87,1646.22,1648.88,1650.93,1652.45,1651.60,1652.35,1654.52,1657.21,1659.06,1659.98,1661.82,1662.74,1664.15,1665.15,1665.50,1665.35,1664.04,1664.90,1665.83,1666.30,1664.54,1664.80,1665.90,1668.58,1668.36,1666.84,1665.44,1664.82,1665.97,1666.86,1665.36,1664.10,1662.66,1662.44,1659.78,1657.81,1654.35,1648.02,0.00,0.00,0.00,0.00,0.00,0.00,0.00,0.00,0.00,0.00,0.00,0.00,0.00,0.00,0.00,0.00,0.00,0.00,0.00,0.00,0.00,0.00,0.00,0.00,0.00,0.00,0.00,0.00,0.00,0.00,0.00,0.00,0.00,0.00,0.00,0.00,0.00,0.00,1660.73,1671.78,1676.53,1676.40,1676.56,1676.46,1677.77,1680.66,1682.27,1677.57,1656.34,0.00,1677.88,1683.06,1686.95,1689.83,1690.77,1691.42,1691.79,1692.92,1693.57,1692.25,1692.26,1693.88,1696.03,1696.14,1696.98,1697.79,1699.58,1699.37,1699.70,1699.25,1698.57,1699.79,1701.59,1702.76,1703.83,1704.91,1708.41,1708.20,1707.27,1706.07,1707.91,1709.92,1710.76,1710.67,1710.92,1711.45,1711.63,1712.77,1712.90,1714.24,1714.41,1715.79,1716.34,1715.92,1715.89,1716.07,1717.56,1718.28,1718.47,1718.82,1718.91,1721.11,1722.02,1722.69,1722.52,1722.32,1723.71,1722.69,1724.49,1724.57,1726.46,1726.47,1728.41,1728.21,1730.05,1729.82,1730.79,1729.99,1731.03,1733.07,1733.42,1733.12,1732.35,1732.88,1735.48,1738.72,1739.46,1739.55,1738.04,1738.57,1738.76,1740.79,1740.39,1739.51,1739.60,1741.73,1738.97,1740.55,1741.88,1741.74,1742.44,1743.24,1750.58,1750.36,1748.52,1749.08,1750.71,1754.55,1756.17,1756.00,1758.54,1745.91,1748.11,1747.45,1762.70,1759.12,1759.09,1758.85,1759.50,1759.66,1760.55,1762.08,1760.31,1761.01,1762.51,1767.93,1767.20,1765.41,1765.52,1766.90,1768.78,1769.51,1770.34,1771.51,1773.01,1772.64,1772.97,1772.39,1774.87,1775.00,1775.53,1774.49,1775.25,1774.85,1775.41,1777.40,1780.54,1783.50,1786.56,0.00,0.00,0.00,0.00,0.00,0.00,0.00,0.00,0.00,0.00,693.44,702.12,706.34,701.31,691.46,686.72,685.69,685.92,684.34,681.54,677.70,670.49,663.68,659.60,658.05,657.35,656.44,654.61,654.82,653.50,653.00,650.13,649.33,648.03,647.70,647.63,649.21,650.18,651.19,650.84,652.86,655.13,656.54,657.74,657.24,658.89,658.51,658.40,657.27,658.44,658.80,659.06,658.92,659.88,662.62,663.27,665.49,667.02,671.13,672.80,674.07,673.36,675.22,677.19,679.23,679.79,680.01,681.45,682.30,683.19,683.49,686.51,690.01,695.04,699.00,705.90,713.87,718.52,720.20,722.75,723.52,719.90,680.82,613.41,593.26,581.37,527.93,0.00,518.57,0.00,0.00,0.00,0.00,0.00,0.00,0.00,0.00,0.00,0.00,0.00,0.00,0.00,0.00,0.00,0.00,0.00,0.00,0.00,0.00,0.00,0.00,0.00,0.00,0.00,0.00,0.00,0.00,0.00,0.00,0.00,0.00,0.00,0.00,0.00,0.00,0.00,0.00,0.00,0.00,0.00,0.00,0.00,0.00,0.00,0.00,0.00,0.00,0.00,0.00,0.00,0.00,0.00,0.00,0.00,0.00,0.00,0.00,0.00,0.00,0.00,0.00,0.00,0.00,0.00,0.00,0.00,0.00,0.00,0.00,0.00,0.00,0.00,0.00,0.00,0.00,0.00,0.00,0.00,0.00,0.00,0.00,0.00,0.00,0.00,0.00,0.00,0.00,0.00,0.00,0.00,0.00,0.00,0.00,0.00,0.00,0.00,0.00,0.00,0.00,0.00,0.00,0.00,0.00,0.00,0.00,0.00,0.00,0.00,0.00,0.00,0.00,0.00,0.00,0.00,0.00,0.00,0.00,0.00,0.00,0.00,0.00,0.00,0.00,0.00,0.00,0.00,0.00,0.00,0.00,0.00,0.00,0.00,0.00,0.00,0.00,0.00,0.00,0.00,0.00,0.00,0.00,0.00,0.00
0.00,0.00,0.00,0.00,0.00,0.00,0.00,0.00,0.00,0.00,0.00,0.00,0.00,0.00,0.00,0.00,0.00,0.00,0.00,0.00,0.00,0.00,0.00,0.00,0.00,0.00,0.00,1595.08,1619.35,1630.06,1635.07,1641.64,1643.10,1643.15,1644.46,1647.43,1649.69,1652.11,1653.24,1654.03,1654.05,1656.87,1657.81,1659.22,1659.48,1661.70,1663.87,1666.73,1667.54,1667.80,1667.18,1667.61,1667.08,1667.48,1666.88,1667.06,1666.56,1667.47,1668.87,1669.13,1666.52,1666.39,1665.67,1668.39,1665.96,1664.86,1665.14,1665.98,1666.06,1663.35,1663.12,1663.46,1661.40,1656.83,1647.52,0.00,0.00,0.00,0.00,0.00,0.00,0.00,0.00,0.00,0.00,0.00,0.00,0.00,0.00,0.00,0.00,0.00,0.00,0.00,0.00,0.00,0.00,0.00,0.00,0.00,0.00,0.00,0.00,0.00,0.00,0.00,0.00,0.00,0.00,0.00,0.00,0.00,1659.06,1669.15,1672.19,1673.78,1673.23,1675.80,1678.79,1680.06,1675.86,1642.40,1638.19,1680.13,1684.85,1687.67,1688.97,1690.80,1691.74,1693.64,1693.74,1694.67,1692.61,1693.75,1694.85,1696.20,1695.18,1695.92,1697.06,1699.54,1699.19,1699.53,1698.75,1700.49,1702.13,1704.28,1704.45,1705.59,1705.87,1708.15,1707.84,1708.63,1708.09,1709.80,1710.98,1711.85,1712.11,1711.36,1711.59,1712.13,1714.03,1714.27,1714.86,1714.76,1716.84,1717.96,1718.34,1718.22,1717.55,1717.96,1717.85,1718.60,1719.44,1719.60,1721.78,1722.56,1724.22,1724.76,1725.60,1726.72,1725.16,1726.42,1726.44,1729.00,1728.69,1730.13,1730.36,1732.54,1732.53,1732.44,1731.90,1732.29,1732.70,1732.37,1734.17,1735.19,1736.41,1736.91,1739.14,1740.41,1740.79,1740.35,1740.15,1740.27,1740.24,1741.26,1741.57,1743.51,1744.17,1745.74,1746.51,1747.72,1749.95,1750.64,1751.32,1749.98,1749.78,1749.83,1751.41,1753.50,1756.28,1757.89,1757.65,1757.98,1758.24,1760.44,1759.39,1759.80,1758.33,1759.16,1759.33,1760.12,1760.75,1760.95,1764.20,1765.84,1767.37,1767.26,1767.45,1767.10,1766.41,1767.24,1768.10,1769.38,1770.53,1771.64,1773.42,1774.68,1773.84,1773.76,1773.22,1776.36,1776.98,1778.54,1778.18,1778.88,1779.12,1780.14,1782.41,1787.07,1790.30,1792.58,0.00,0.00,0.00,0.00,0.00,0.00,0.00,0.00,0.00,0.00,688.09,703.86,708.31,705.21,696.65,692.26,690.32,688.83,685.37,681.47,676.60,670.45,663.17,660.41,660.99,661.10,659.85,657.63,657.08,655.66,652.82,649.85,649.27,649.71,650.59,650.84,652.65,654.16,654.37,652.83,652.94,654.98,656.12,657.49,657.24,659.31,659.30,660.07,659.71,660.53,660.02,660.36,661.73,664.69,666.89,668.10,669.17,670.99,673.34,675.37,676.34,676.89,678.36,680.28,681.41,683.15,683.78,685.43,685.56,686.21,686.11,688.71,692.97,699.33,704.80,712.45,719.45,722.88,724.28,726.40,726.52,721.39,680.70,601.00,567.50,561.33,542.76,526.50,529.64,0.00,0.00,0.00,0.00,0.00,0.00,0.00,0.00,0.00,0.00,0.00,0.00,0.00,0.00,0.00,0.00,0.00,0.00,0.00,0.00,0.00,0.00,0.00,0.00,0.00,0.00,0.00,0.00,0.00,0.00,0.00,0.00,0.00,0.00,0.00,0.00,0.00,0.00,0.00,0.00,0.00,0.00,0.00,0.00,0.00,0.00,0.00,0.00,0.00,0.00,0.00,0.00,0.00,0.00,0.00,0.00,0.00,0.00,0.00,0.00,0.00,0.00,0.00,0.00,0.00,0.00,0.00,0.00,0.00,0.00,0.00,0.00,0.00,0.00,0.00,0.00,0.00,0.00,0.00,0.00,0.00,0.00,0.00,0.00,0.00,0.00,0.00,0.00,0.00,0.00,0.00,0.00,0.00,0.00,0.00,0.00,0.00,0.00,0.00,0.00,0.00,0.00,0.00,0.00,0.00,0.00,0.00,0.00,0.00,0.00,0.00,0.00,0.00,0.00,0.00,0.00,0.00,0.00,0.00,0.00,0.00,0.00,0.00,0.00,0.00,0.00,0.00,0.00,0.00,0.00,0.00,0.00,0.00,0.00,0.00,0.00,0.00,0.00,0.00,0.00,0.00,0.00,0.00,0.00
0.00,0.00,0.00,0.00,0.00,0.00,0.00,0.00,0.00,0.00,0.00,0.00,0.00,0.00,0.00,0.00,0.00,0.00,0.00,0.00,0.00,0.00,0.00,0.00,0.00,0.00,0.00,1583.44,1608.69,1622.69,1629.27,1636.59,1639.62,1639.69,1641.88,1644.72,1647.98,1649.58,1651.30,1651.86,1652.95,1655.53,1657.22,1658.63,1659.21,1660.83,1663.80,1666.64,1667.50,1665.68,1664.54,1666.03,1666.79,1667.11,1666.02,1666.02,1664.99,1664.80,1665.79,1665.64,1664.27,1663.39,1663.99,1665.64,1665.69,1665.73,1667.17,1667.46,1666.64,1663.59,1663.14,1663.61,1663.33,1661.12,1657.35,1651.82,1642.03,0.00,0.00,0.00,0.00,0.00,0.00,0.00,0.00,0.00,0.00,0.00,0.00,0.00,0.00,0.00,0.00,0.00,0.00,0.00,0.00,0.00,0.00,0.00,0.00,0.00,0.00,0.00,0.00,0.00,0.00,0.00,0.00,0.00,0.00,0.00,0.00,0.00,1660.12,1662.62,1663.98,1665.90,1669.28,1669.36,1666.30,0.00,1664.08,1676.97,1682.72,1684.68,1686.04,1687.04,1688.31,1690.06,1690.67,1691.77,1690.58,1690.70,1691.26,1692.13,1692.63,1693.08,1694.56,1696.83,1696.95,1696.45,1696.20,1698.35,1700.66,1702.13,1702.72,1703.07,1703.55,1704.85,1705.66,1705.72,1705.84,1706.54,1708.33,1708.50,1709.21,1708.81,1709.65,1710.51,1712.02,1712.62,1712.90,1712.76,1714.86,1716.24,1717.92,1717.05,1716.67,1715.47,1715.61,1716.45,1717.69,1718.27,1719.79,1721.17,1722.10,1722.53,1722.13,1724.09,1723.72,1725.72,1725.13,1726.91,1727.20,1728.55,1729.76,1730.83,1731.16,1730.99,1731.49,1731.14,1730.40,1730.21,1732.55,1734.50,1736.41,1736.75,1738.02,1738.85,1738.45,1737.13,1736.87,1738.56,1739.57,1739.45,1738.73,1741.36,1742.80,1744.40,1744.14,1744.70,1745.66,1745.82,1747.23,1747.51,1748.01,1748.18,1749.74,1751.97,1753.98,1754.45,1753.64,1753.28,1753.82,1754.41,1753.56,1753.84,1753.89,1755.57,1756.45,1757.73,1758.38,1759.05,1761.44,1763.88,1764.69,1764.29,1764.25,1765.58,1766.10,1766.70,1766.76,1768.29,1769.83,1771.80,1774.93,1777.10,1774.87,1774.97,1774.47,1777.59,1778.90,1781.13,1780.74,1780.00,1778.75,1777.67,1778.43,1782.08,1788.03,1786.84,1789.35,0.00,0.00,0.00,0.00,0.00,0.00,0.00,0.00,513.25,679.35,701.58,706.85,704.54,697.17,691.44,687.95,685.15,682.04,678.81,673.59,667.87,662.92,661.08,661.40,660.20,658.34,656.97,655.84,655.47,653.13,650.81,650.02,649.67,651.17,650.97,652.73,653.80,654.77,653.54,653.41,654.12,654.96,655.61,654.52,656.14,656.80,658.11,657.93,658.90,659.63,659.94,661.58,663.42,666.09,667.44,668.71,669.68,671.06,672.62,673.92,674.04,675.51,677.08,679.20,681.27,681.92,682.95,683.28,684.80,686.85,689.42,693.73,699.26,706.14,713.38,719.50,722.47,724.67,725.93,725.89,718.95,678.86,600.98,568.79,554.65,526.80,532.68,0.00,0.00,0.00,0.00,0.00,0.00,0.00,0.00,0.00,0.00,0.00,0.00,0.00,0.00,0.00,0.00,0.00,0.00,0.00,0.00,0.00,0.00,0.00,0.00,0.00,0.00,0.00,0.00,0.00,0.00,0.00,0.00,0.00,0.00,0.00,0.00,0.00,0.00,0.00,0.00,0.00,0.00,0.00,0.00,0.00,0.00,0.00,0.00,0.00,0.00,0.00,0.00,0.00,0.00,0.00,0.00,0.00,0.00,0.00,0.00,0.00,0.00,0.00,0.00,0.00,0.00,0.00,0.00,0.00,0.00,0.00,0.00,0.00,0.00,0.00,0.00,0.00,0.00,0.00,0.00,0.00,0.00,0.00,0.00,0.00,0.00,0.00,0.00,0.00,0.00,0.00,0.00,0.00,0.00,0.00,0.00,0.00,0.00,0.00,0.00,0.00,0.00,0.00,0.00,0.00,0.00,0.00,0.00,0.00,0.00,0.00,0.00,0.00,0.00,0.00,0.00,0.00,0.00,0.00,0.00,0.00,0.00,0.00,0.00,0.00,0.00,0.00,0.00,0.00,0.00,0.00,0.00,0.00,0.00,0.00,0.00,0.00,0.00,0.00,0.00,0.00,0.00,0.00,0.00,0.00
0.00,0.00,0.00,0.00,0.00,0.00,0.00,0.00,0.00,0.00,0.00,0.00,0.00,0.00,0.00,0.00,0.00,0.00,0.00,0.00,0.00,0.00,0.00,0.00,0.00,0.00,0.00,0.00,1601.84,1619.91,1626.60,1633.21,1636.36,1636.47,1640.75,1645.78,1651.02,1652.43,1653.53,1653.69,1655.45,1657.91,1660.76,1661.92,1661.50,1661.62,1663.57,1667.43,1668.23,1665.81,1664.22,1666.53,1668.46,1668.41,1667.68,1668.01,1667.86,1666.65,1665.93,1666.47,1665.76,1666.65,1665.40,1667.34,1666.56,1668.10,1668.07,1668.93,1667.58,1666.18,1665.08,1666.06,1665.74,1665.14,1663.55,1662.70,1658.75,1651.93,1638.62,0.00,0.00,0.00,0.00,0.00,0.00,0.00,0.00,0.00,0.00,0.00,0.00,0.00,0.00,0.00,0.00,0.00,0.00,0.00,0.00,0.00,0.00,0.00,0.00,0.00,0.00,0.00,0.00,0.00,0.00,0.00,0.00,0.00,0.00,0.00,0.00,1643.13,1646.52,1646.95,1647.48,1647.22,1636.63,0.00,1656.93,1672.06,1679.83,1683.98,1685.56,1688.20,1688.92,1690.34,1690.57,1691.57,1691.26,1692.48,1692.78,1693.94,1693.64,1694.07,1695.44,1697.60,1699.01,1698.96,1699.19,1700.70,1702.09,1702.94,1703.45,1703.44,1703.48,1703.58,1705.06,1705.92,1706.68,1708.07,1709.25,1710.38,1710.21,1710.70,1710.83,1711.42,1712.25,1713.62,1714.16,1714.42,1716.13,1717.11,1719.09,1718.35,1718.65,1716.90,1717.46,1718.26,1719.06,1719.45,1720.96,1722.85,1723.40,1723.99,1723.89,1726.39,1726.81,1728.60,1727.38,1728.14,1728.00,1729.07,1730.72,1732.17,1732.78,1732.53,1733.21,1732.92,1732.44,1731.95,1734.28,1736.37,1738.45,1738.32,1738.10,1739.16,1739.09,1739.69,1738.80,1739.90,1739.90,1740.09,1740.02,1741.97,1744.68,1746.50,1746.79,1746.69,1746.88,1746.66,1748.40,1748.27,1749.14,1749.16,1751.40,1752.69,1754.02,1754.32,1753.89,1753.79,1754.33,1755.31,1755.46,1755.83,1756.92,1759.20,1762.48,1763.03,1763.75,1763.61,1766.22,1768.01,1770.89,1768.97,1768.11,0.00,1768.69,1767.72,1768.14,1770.28,0.00,0.00,0.00,0.00,0.00,0.00,0.00,0.00,0.00,0.00,1782.88,1782.47,1783.18,1781.96,1780.71,1785.01,1792.36,1799.17,1805.40,0.00,0.00,0.00,0.00,0.00,0.00,0.00,0.00,506.78,0.00,704.65,709.78,709.08,703.02,697.00,691.99,688.09,684.27,681.54,676.46,672.61,668.98,666.49,664.89,663.46,663.47,664.20,663.26,662.61,660.22,659.66,657.30,657.18,655.55,655.07,656.00,658.47,658.55,656.63,655.62,657.75,658.88,660.89,659.92,661.35,660.50,662.30,662.52,663.16,663.48,663.42,664.60,665.82,668.22,670.88,672.24,673.16,673.33,675.13,676.91,677.81,678.46,680.36,682.12,684.68,684.78,686.21,686.26,688.47,691.44,694.24,698.26,704.26,713.15,720.77,725.29,725.85,727.79,727.64,727.52,716.81,678.38,596.84,579.48,547.72,537.16,575.51,548.03,0.00,0.00,0.00,0.00,0.00,0.00,0.00,0.00,0.00,0.00,0.00,0.00,0.00,0.00,0.00,0.00,0.00,0.00,0.00,0.00,0.00,0.00,0.00,0.00,0.00,0.00,0.00,0.00,0.00,0.00,0.00,0.00,0.00,0.00,0.00,0.00,0.00,0.00,0.00,0.00,0.00,0.00,0.00,0.00,0.00,0.00,0.00,0.00,0.00,0.00,0.00,0.00,0.00,0.00,0.00,0.00,0.00,0.00,0.00,0.00,0.00,0.00,0.00,0.00,0.00,0.00,0.00,0.00,0.00,0.00,0.00,0.00,0.00,0.00,0.00,0.00,0.00,0.00,0.00,0.00,0.00,0.00,0.00,0.00,0.00,0.00,0.00,0.00,0.00,0.00,0.00,0.00,0.00,0.00,0.00,0.00,0.00,0.00,0.00,0.00,0.00,0.00,0.00,0.00,0.00,0.00,0.00,0.00,0.00,0.00,0.00,0.00,0.00,0.00,0.00,0.00,0.00,0.00,0.00,0.00,0.00,0.00,0.00,0.00,0.00,0.00,0.00,0.00,0.00,0.00,0.00,0.00,0.00,0.00,0.00,0.00,0.00,0.00,0.00,0.00,0.00,0.00,0.00,0.00
0.00,0.00,0.00,0.00,0.00,0.00,0.00,0.00,0.00,0.00,0.00,0.00,0.00,0.00,0.00,0.00,0.00,0.00,0.00,0.00,0.00,0.00,0.00,0.00,0.00,0.00,0.00,0.00,1594.55,1613.95,1622.76,1627.40,1631.39,1632.57,1638.50,1643.51,1649.86,1651.35,1652.74,1652.82,1655.84,1658.01,1661.20,1661.20,1661.08,1660.51,1662.63,1665.69,1667.42,1665.86,1663.63,1663.51,1666.14,1666.16,1667.26,1666.07,1666.90,1664.93,1664.32,1664.55,1664.66,1664.25,1663.01,1664.19,1667.26,1670.30,1668.99,1667.21,1665.20,1665.54,1665.36,1664.94,1663.84,1662.65,1662.78,1663.28,1661.61,1659.27,1654.02,1646.11,0.00,0.00,0.00,0.00,0.00,0.00,0.00,0.00,0.00,0.00,0.00,0.00,0.00,0.00,0.00,0.00,0.00,0.00,0.00,0.00,0.00,0.00,0.00,0.00,0.00,0.00,0.00,0.00,0.00,0.00,0.00,0.00,0.00,0.00,0.00,0.00,0.00,0.00,0.00,0.00,0.00,0.00,0.00,1657.15,1670.63,1678.58,1681.42,1685.17,1686.40,1687.56,1688.04,1688.23,1688.71,1690.30,1691.27,1691.77,1691.41,1691.75,1693.56,1695.42,1697.12,1697.03,1697.25,1697.49,1698.69,1699.32,1699.84,1700.37,1701.40,1702.86,1704.13,1703.42,1703.55,1703.75,1705.68,1706.50,1707.36,1709.05,1709.48,1709.29,1709.10,1710.94,1712.17,1713.33,1714.59,1714.64,1715.82,1715.17,1717.21,1716.77,1718.02,1718.32,1718.61,1718.66,1719.80,1720.86,1720.82,1721.00,1720.58,1723.42,1724.73,1727.15,1726.34,1725.99,1726.28,1727.01,1728.42,1729.15,1729.77,1730.33,1732.02,1732.01,1730.91,1730.15,1732.00,1734.99,1736.51,1736.55,1736.18,1736.41,1736.22,1736.53,1736.93,1738.24,1739.14,1739.20,1740.20,1740.81,1743.11,1744.11,1745.59,1745.31,1745.83,1745.72,1747.20,1746.63,1747.30,1747.93,1749.90,1750.40,1751.76,1752.20,1752.20,1752.50,1753.97,1755.06,1755.24,1756.09,1758.28,1763.12,1769.48,1776.80,1782.79,1788.89,1790.09,1794.46,1799.99,1814.20,1827.38,0.00,670.89,0.00,0.00,0.00,0.00,0.00,725.67,725.93,726.38,727.45,728.11,727.57,0.00,725.17,0.00,720.47,717.51,713.22,697.78,709.01,697.51,0.00,0.00,0.00,0.00,0.00,524.59,522.10,504.59,0.00,501.44,509.91,0.00,700.29,707.81,706.18,700.89,694.69,690.15,686.65,683.58,681.64,678.81,675.43,673.07,669.89,667.43,663.88,662.58,662.72,662.37,663.00,662.78,663.30,660.92,659.53,657.64,656.73,657.61,658.56,658.96,656.80,656.11,656.91,657.18,658.83,658.30,659.43,658.58,660.56,661.07,660.81,661.68,661.55,663.33,662.97,665.01,666.76,669.51,671.49,672.37,673.36,675.41,677.52,678.95,680.98,681.78,683.15,682.48,684.48,685.16,687.12,690.07,693.91,699.46,705.47,713.10,719.25,722.31,723.83,726.80,728.32,727.83,714.06,657.34,593.85,556.01,561.48,557.45,546.70,521.39,0.00,0.00,0.00,0.00,0.00,0.00,0.00,0.00,0.00,0.00,0.00,0.00,0.00,0.00,0.00,0.00,0.00,0.00,0.00,0.00,0.00,0.00,0.00,0.00,0.00,0.00,0.00,0.00,0.00,0.00,0.00,0.00,0.00,0.00,0.00,0.00,0.00,0.00,0.00,0.00,0.00,0.00,0.00,0.00,0.00,0.00,0.00,0.00,0.00,0.00,0.00,0.00,0.00,0.00,0.00,0.00,0.00,0.00,0.00,0.00,0.00,0.00,0.00,0.00,0.00,0.00,0.00,0.00,0.00,0.00,0.00,0.00,0.00,0.00,0.00,0.00,0.00,0.00,0.00,0.00,0.00,0.00,0.00,0.00,0.00,0.00,0.00,0.00,0.00,0.00,0.00,0.00,0.00,0.00,0.00,0.00,0.00,0.00,0.00,0.00,0.00,0.00,0.00,0.00,0.00,0.00,0.00,0.00,0.00,0.00,0.00,0.00,0.00,0.00,0.00,0.00,0.00,0.00,0.00,0.00,0.00,0.00,0.00,0.00,0.00,0.00,0.00,0.00,0.00,0.00,0.00,0.00,0.00,0.00,0.00,0.00,0.00,0.00,0.00,0.00,0.00,0.00,0.00,0.00
0.00,0.00,0.00,0.00,0.00,0.00,0.00,0.00,0.00,0.00,0.00,0.00,0.00,0.00,0.00,0.00,0.00,0.00,0.00,0.00,0.00,0.00,0.00,0.00,0.00,0.00,0.00,0.00,1583.92,1614.10,1625.79,1629.30,1630.26,1633.12,1639.76,1646.88,1651.07,1653.25,1652.35,1653.38,1656.30,1660.24,1663.60,1662.70,1661.27,1660.22,1661.03,1664.11,1666.30,1666.73,1664.83,1663.81,1664.90,1665.55,1666.79,1666.81,1666.91,1665.43,1664.42,1665.41,1665.57,1665.42,1664.08,1665.68,1667.51,1669.72,1668.05,1666.97,1665.74,1666.11,1665.40,1665.24,1664.75,1665.68,1665.64,1665.90,1663.49,1662.41,1660.75,1658.99,1652.85,1643.70,0.00,0.00,0.00,0.00,0.00,0.00,0.00,0.00,0.00,0.00,0.00,0.00,0.00,0.00,0.00,0.00,0.00,0.00,0.00,0.00,0.00,0.00,0.00,0.00,0.00,0.00,0.00,0.00,0.00,0.00,0.00,0.00,0.00,0.00,0.00,0.00,0.00,0.00,1342.91,1339.58,0.00,0.00,0.00,1674.17,1677.99,1683.70,1685.26,1688.11,1689.03,1689.81,1690.02,1692.18,1692.54,1693.01,1692.18,1692.71,1694.27,1696.12,1697.85,1698.96,1699.36,1699.49,1699.91,1700.24,1699.75,1700.53,1702.07,1704.68,1705.54,1705.60,1705.58,1705.06,1705.87,1707.62,1708.93,1709.94,1709.66,1709.92,1710.38,1711.46,1712.80,1714.79,1716.21,1715.50,1715.69,1715.71,1717.75,1718.24,1718.98,1719.43,1719.29,1720.27,1721.34,1721.64,1721.37,1722.40,1723.61,1725.76,1726.34,1728.56,1728.23,1728.92,1727.98,1728.67,1728.96,1730.08,1730.58,1730.93,1732.17,1732.69,1732.61,1732.81,1733.72,1735.31,1735.71,1735.92,1736.22,1737.04,1737.28,1738.63,1738.98,1740.40,1740.57,1741.36,1741.80,1741.31,1743.10,1744.63,1747.40,1746.73,1747.08,1746.19,1747.59,1746.90,1748.34,1749.38,1751.88,1752.09,1752.69,1753.77,1754.56,1757.64,1759.76,1762.13,1763.95,1768.51,1787.07,0.00,0.00,0.00,0.00,0.00,0.00,0.00,0.00,693.96,714.21,719.63,721.15,722.92,725.93,729.26,729.36,731.00,731.14,731.74,732.53,733.59,734.01,733.75,732.33,731.93,731.68,732.73,732.26,731.60,733.58,737.94,741.53,742.01,741.16,741.99,741.41,733.04,0.00,0.00,0.00,0.00,527.57,523.07,0.00,700.49,710.65,710.74,706.97,701.40,695.97,691.14,687.78,687.20,686.38,684.59,682.29,680.12,676.98,672.86,670.03,668.92,669.49,670.14,670.48,670.38,668.14,665.96,664.23,663.97,664.99,664.76,663.19,660.62,659.44,660.06,660.85,661.93,661.32,661.57,661.19,662.95,663.78,662.90,663.77,663.85,666.37,667.16,669.13,670.48,672.14,674.48,676.57,677.85,679.81,682.51,684.85,686.54,686.25,687.27,687.32,689.84,690.98,692.88,694.69,698.94,704.97,711.77,719.06,724.07,726.06,725.95,727.59,729.27,729.45,717.08,647.97,575.08,569.60,572.88,565.98,551.52,516.35,512.01,0.00,0.00,0.00,0.00,0.00,0.00,0.00,0.00,0.00,0.00,0.00,0.00,0.00,0.00,0.00,0.00,0.00,0.00,0.00,0.00,0.00,0.00,0.00,0.00,0.00,0.00,0.00,0.00,0.00,0.00,0.00,0.00,0.00,0.00,0.00,0.00,0.00,0.00,0.00,0.00,0.00,0.00,0.00,0.00,0.00,0.00,0.00,0.00,0.00,0.00,0.00,0.00,0.00,0.00,0.00,0.00,0.00,0.00,0.00,0.00,0.00,0.00,0.00,0.00,0.00,0.00,0.00,0.00,0.00,0.00,0.00,0.00,0.00,0.00,0.00,0.00,0.00,0.00,0.00,0.00,0.00,0.00,0.00,0.00,0.00,0.00,0.00,0.00,0.00,0.00,0.00,0.00,0.00,0.00,0.00,0.00,0.00,0.00,0.00,0.00,0.00,0.00,0.00,0.00,0.00,0.00,0.00,0.00,0.00,0.00,0.00,0.00,0.00,0.00,0.00,0.00,0.00,0.00,0.00,0.00,0.00,0.00,0.00,0.00,0.00,0.00,0.00,0.00,0.00,0.00,0.00,0.00,0.00,0.00,0.00,0.00,0.00,0.00,0.00,0.00,0.00,0.00,0.00
0.00,0.00,0.00,0.00,0.00,0.00,0.00,0.00,0.00,0.00,0.00,0.00,0.00,0.00,0.00,0.00,0.00,0.00,0.00,0.00,0.00,0.00,0.00,0.00,0.00,0.00,0.00,0.00,1575.57,1608.38,1623.21,1627.37,1629.30,1632.62,1638.62,1644.50,1647.88,1649.01,1649.45,1650.72,1654.96,1658.45,1660.59,1659.18,1658.67,1658.85,1660.75,1661.63,1663.26,1663.96,1663.52,1663.00,1663.50,1664.68,1664.94,1664.83,1664.33,1663.52,1663.55,1663.90,1664.44,1663.33,1663.30,1663.86,1665.36,1666.58,1667.07,1666.32,1665.53,1664.96,1664.88,1664.75,1664.54,1664.49,1664.51,1664.09,1663.21,1661.88,1661.39,1660.97,1659.34,1655.91,1647.61,0.00,0.00,0.00,0.00,0.00,0.00,0.00,0.00,0.00,0.00,0.00,0.00,0.00,0.00,0.00,0.00,0.00,0.00,0.00,0.00,0.00,0.00,0.00,0.00,0.00,0.00,0.00,0.00,0.00,0.00,0.00,0.00,0.00,0.00,0.00,0.00,0.00,0.00,1326.32,1328.88,0.00,0.00,1654.65,1667.50,1675.55,1680.41,1684.35,1686.98,1688.05,1687.91,1689.14,1690.14,1690.91,1690.68,1691.03,1691.94,1693.54,1694.96,1696.68,1696.63,1696.68,1696.92,1697.46,1696.76,1697.68,1699.39,1701.76,1702.53,1703.10,1703.28,1702.54,1702.96,1705.42,1707.30,1707.69,1707.32,1708.86,1709.91,1710.26,1710.90,1712.83,1713.76,1713.24,1714.14,1714.57,1715.59,1715.54,1716.57,1717.09,1716.50,1717.15,1717.61,1718.28,1718.67,1720.97,1722.87,1723.58,1723.36,1724.32,1725.03,1726.16,1726.14,1727.37,1727.36,1727.75,1727.94,1728.15,1729.65,1730.09,1730.21,1730.27,1731.30,1732.79,1733.55,1734.02,1734.89,1735.13,1734.58,1735.11,1735.92,1738.34,1739.34,1740.50,1740.70,1740.07,1741.08,1742.36,1744.70,1744.41,1745.28,1744.62,1746.00,1745.31,1747.24,1748.54,1751.25,1752.96,1753.87,1754.71,1756.76,1762.07,1766.97,1772.45,1777.91,0.00,0.00,0.00,0.00,0.00,0.00,0.00,595.09,682.73,708.96,720.10,725.69,727.39,726.57,727.53,729.54,732.51,732.61,733.17,732.80,731.05,730.98,732.23,734.60,734.86,733.77,733.35,734.23,736.66,737.73,737.77,739.78,742.85,745.23,743.88,745.04,746.63,750.16,749.80,749.21,744.98,739.43,0.00,0.00,550.05,0.00,0.00,709.48,710.52,707.44,701.28,696.22,691.10,687.84,685.92,685.71,684.89,683.72,682.27,681.06,677.86,674.06,671.39,671.49,672.80,673.37,672.29,670.13,667.07,666.23,665.36,665.82,664.93,663.55,662.19,660.82,660.63,660.92,660.31,660.10,659.16,660.25,660.29,661.83,660.84,663.14,663.06,665.97,666.49,668.28,669.28,671.40,674.14,677.26,677.87,679.07,679.35,682.82,684.17,685.18,684.34,685.25,687.14,688.93,691.18,694.19,700.52,707.74,714.56,718.76,720.84,722.48,723.44,725.89,727.73,727.51,716.20,634.50,572.37,568.02,575.65,571.25,559.70,555.09,563.57,536.76,518.82,0.00,0.00,0.00,0.00,0.00,0.00,0.00,0.00,0.00,0.00,0.00,0.00,0.00,0.00,0.00,0.00,0.00,0.00,0.00,0.00,0.00,0.00,0.00,0.00,0.00,0.00,0.00,0.00,0.00,0.00,0.00,0.00,0.00,0.00,0.00,0.00,0.00,0.00,0.00,0.00,0.00,0.00,0.00,0.00,0.00,0.00,0.00,0.00,0.00,0.00,0.00,0.00,0.00,0.00,0.00,0.00,0.00,0.00,0.00,0.00,0.00,0.00,0.00,0.00,0.00,0.00,0.00,0.00,0.00,0.00,0.00,0.00,0.00,0.00,0.00,0.00,0.00,0.00,0.00,0.00,0.00,0.00,0.00,0.00,0.00,0.00,0.00,0.00,0.00,0.00,0.00,0.00,0.00,0.00,0.00,0.00,0.00,0.00,0.00,0.00,0.00,0.00,0.00,0.00,0.00,0.00,0.00,0.00,0.00,0.00,0.00,0.00,0.00,0.00,0.00,0.00,0.00,0.00,0.00,0.00,0.00,0.00,0.00,0.00,0.00,0.00,0.00,0.00,0.00,0.00,0.00,0.00,0.00,0.00,0.00,0.00,0.00,0.00,0.00,0.00,0.00
0.00,0.00,0.00,0.00,0.00,0.00,0.00,0.00,0.00,0.00,0.00,0.00,0.00,0.00,0.00,0.00,0.00,0.00,0.00,0.00,0.00,0.00,0.00,0.00,0.00,0.00,0.00,0.00,0.00,1605.97,1624.34,1629.96,1630.59,1633.57,1638.50,1645.20,1647.37,1648.73,1649.22,1652.13,1655.49,1658.89,1660.03,1659.50,1659.67,1661.18,1663.06,1661.74,1661.53,1661.16,1662.39,1663.35,1663.60,1666.39,1665.16,1666.48,1664.33,1665.16,1664.37,1665.61,1665.80,1665.98,1666.30,1667.60,1667.15,1667.15,1667.82,1668.69,1667.80,1666.51,1665.84,1666.18,1666.20,1667.12,1666.11,1665.99,1664.07,1663.99,1663.18,1664.38,1662.63,1661.47,1656.93,1653.44,1644.53,0.00,0.00,0.00,0.00,0.00,0.00,0.00,0.00,0.00,0.00,0.00,0.00,0.00,0.00,0.00,0.00,0.00,0.00,0.00,0.00,0.00,0.00,0.00,0.00,0.00,0.00,0.00,0.00,0.00,0.00,0.00,0.00,0.00,0.00,0.00,0.00,0.00,0.00,0.00,0.00,0.00,1650.69,1669.86,1678.55,1683.84,1686.89,1688.59,1688.88,1689.68,1690.44,1691.68,1691.46,1692.07,1692.73,1694.41,1695.55,1697.33,1696.99,1698.29,1698.80,1699.74,1698.67,1699.15,1700.24,1701.87,1702.40,1703.51,1704.30,1704.99,1705.65,1707.60,1708.43,1708.31,1708.49,1711.08,1712.50,1712.05,1712.14,1713.96,1714.40,1714.49,1715.41,1716.37,1716.22,1715.89,1716.46,1717.60,1717.21,1718.20,1718.55,1720.17,1721.12,1723.25,1724.05,1724.01,1723.83,1725.15,1726.14,1728.15,1727.60,1728.36,1727.76,1728.77,1728.86,1728.94,1730.08,1731.07,1732.05,1731.76,1732.84,1733.21,1734.68,1735.49,1736.30,1737.23,1736.85,1738.34,1737.58,1738.85,1738.99,1740.64,1740.36,1740.11,1740.65,1742.34,1744.52,1745.81,1746.80,1745.70,1746.93,1747.25,1750.04,1751.94,1755.93,1761.10,1763.83,1771.70,1776.68,1785.26,0.00,0.00,0.00,0.00,0.00,609.47,692.66,686.37,681.03,694.68,706.33,716.70,724.94,729.80,733.39,733.52,733.25,732.42,732.03,733.14,733.53,734.32,733.17,732.63,733.83,735.94,737.29,737.03,735.74,735.53,735.70,737.33,738.54,739.36,741.46,743.73,745.39,745.83,748.86,752.29,756.51,758.29,759.68,760.08,759.51,757.49,747.80,0.00,0.00,659.30,710.52,717.03,715.18,708.94,702.88,698.14,694.34,691.32,689.01,688.19,686.59,686.67,685.92,685.30,682.41,680.12,678.86,679.05,678.67,677.75,676.29,673.47,671.25,668.61,667.92,668.21,666.91,666.20,664.66,665.14,665.83,665.09,664.53,663.33,664.07,663.73,664.56,664.61,667.20,667.43,668.17,669.50,672.39,675.46,676.15,677.96,680.94,682.80,683.77,682.80,685.34,686.77,688.77,689.34,690.63,691.56,691.75,694.51,699.03,707.33,714.17,719.51,722.47,723.61,724.33,724.38,725.86,727.83,726.94,715.53,657.75,586.39,579.17,584.88,579.16,571.81,574.43,581.13,584.96,585.99,0.00,0.00,527.88,0.00,0.00,0.00,0.00,0.00,0.00,0.00,0.00,0.00,0.00,0.00,0.00,0.00,0.00,0.00,0.00,0.00,0.00,0.00,0.00,0.00,0.00,0.00,0.00,0.00,0.00,0.00,0.00,0.00,0.00,0.00,0.00,0.00,0.00,0.00,0.00,0.00,0.00,0.00,0.00,0.00,0.00,0.00,0.00,0.00,0.00,0.00,0.00,0.00,0.00,0.00,0.00,0.00,0.00,0.00,0.00,0.00,0.00,0.00,0.00,0.00,0.00,0.00,0.00,0.00,0.00,0.00,0.00,0.00,0.00,0.00,0.00,0.00,0.00,0.00,0.00,0.00,0.00,0.00,0.00,0.00,0.00,0.00,0.00,0.00,0.00,0.00,0.00,0.00,0.00,0.00,0.00,0.00,0.00,0.00,0.00,0.00,0.00,0.00,0.00,0.00,0.00,0.00,0.00,0.00,0.00,0.00,0.00,0.00,0.00,0.00,0.00,0.00,0.00,0.00,0.00,0.00,0.00,0.00,0.00,0.00,0.00,0.00,0.00,0.00,0.00,0.00,0.00,0.00,0.00,0.00,0.00,0.00,0.00,0.00,0.00,0.00,0.00
0.00,0.00,0.00,0.00,0.00,0.00,0.00,0.00,0.00,0.00,0.00,0.00,0.00,0.00,0.00,0.00,0.00,0.00,0.00,0.00,0.00,0.00,0.00,0.00,0.00,0.00,0.00,0.00,0.00,1601.87,1622.42,1631.08,1633.60,1637.41,1638.58,1642.59,1643.89,1645.59,1648.31,1651.28,1655.07,1657.40,1657.57,1657.34,1658.08,1661.08,1662.02,1660.20,1659.48,1659.82,1660.69,1661.06,1661.78,1664.33,1663.42,1663.11,1661.88,1662.89,1662.74,1664.40,1664.65,1664.82,1663.91,1665.07,1664.69,1664.24,1665.35,1666.33,1666.79,1665.79,1665.78,1664.90,1665.03,1664.50,1665.09,1665.29,1664.66,1663.31,1661.70,1662.11,1661.32,1660.23,1658.32,1658.73,1656.32,1651.13,0.00,0.00,0.00,0.00,0.00,0.00,0.00,0.00,0.00,0.00,0.00,0.00,0.00,0.00,0.00,0.00,0.00,0.00,0.00,0.00,0.00,0.00,0.00,0.00,0.00,0.00,0.00,0.00,0.00,0.00,0.00,0.00,0.00,0.00,0.00,0.00,0.00,0.00,0.00,1342.03,0.00,1654.95,1672.80,1678.96,1683.19,1685.57,1686.30,1686.32,1687.62,1689.12,1689.93,1689.74,1690.11,1690.61,1692.50,1694.01,1693.86,1694.67,1695.96,1697.47,1697.83,1698.07,1698.86,1698.43,1698.91,1699.28,1699.85,1701.42,1703.68,1705.66,1706.94,1707.42,1708.33,1710.32,1711.35,1712.14,1710.64,1711.07,1710.42,1712.44,1713.31,1714.18,1713.96,1714.02,1714.82,1715.34,1715.32,1715.17,1715.51,1717.42,1719.85,1721.60,1721.75,1720.80,1721.00,1722.09,1723.74,1724.97,1725.17,1725.74,1725.93,1727.16,1727.22,1727.66,1728.23,1729.63,1729.52,1729.39,1730.32,1731.77,1733.51,1734.40,1734.68,1734.68,1734.17,1735.86,1736.10,1737.29,1737.55,1738.11,1737.70,1737.91,1739.10,1740.48,1741.36,1743.16,1744.47,1744.89,1746.52,1749.22,1751.94,1755.45,1762.46,1775.50,0.00,0.00,0.00,0.00,0.00,0.00,0.00,651.97,704.20,713.28,714.24,711.19,710.19,713.17,719.74,724.15,727.89,729.42,730.91,731.57,731.66,730.39,728.93,728.68,728.77,729.72,728.82,728.49,729.24,731.61,732.58,732.55,731.53,731.97,731.28,732.72,733.27,736.25,737.85,739.64,739.88,740.26,744.14,748.27,754.21,757.98,760.96,763.19,763.92,764.71,763.12,758.09,0.00,671.67,705.68,716.53,715.14,708.84,704.29,700.34,695.97,690.02,686.81,685.80,684.43,683.08,682.28,681.39,679.23,676.81,675.46,675.56,674.98,674.24,673.15,671.52,669.72,666.50,665.88,666.09,665.33,664.15,663.17,664.25,665.18,664.16,663.76,661.90,662.40,662.13,664.32,665.27,666.95,666.70,666.82,668.57,670.90,674.89,676.16,678.42,680.13,681.92,682.90,682.19,683.73,684.31,687.11,687.97,689.87,690.21,691.07,694.30,699.78,708.69,715.12,719.04,719.59,720.47,720.73,721.96,723.18,725.74,724.13,711.35,644.02,611.37,600.31,598.24,583.99,575.02,570.34,581.26,593.00,595.73,547.27,539.94,511.89,533.61,514.31,0.00,0.00,0.00,0.00,0.00,0.00,0.00,0.00,0.00,0.00,0.00,0.00,0.00,0.00,0.00,0.00,0.00,0.00,0.00,0.00,0.00,0.00,0.00,0.00,0.00,0.00,0.00,0.00,0.00,0.00,0.00,0.00,0.00,0.00,0.00,0.00,0.00,0.00,0.00,0.00,0.00,0.00,0.00,0.00,0.00,0.00,0.00,0.00,0.00,0.00,0.00,0.00,0.00,0.00,0.00,0.00,0.00,0.00,0.00,0.00,0.00,0.00,0.00,0.00,0.00,0.00,0.00,0.00,0.00,0.00,0.00,0.00,0.00,0.00,0.00,0.00,0.00,0.00,0.00,0.00,0.00,0.00,0.00,0.00,0.00,0.00,0.00,0.00,0.00,0.00,0.00,0.00,0.00,0.00,0.00,0.00,0.00,0.00,0.00,0.00,0.00,0.00,0.00,0.00,0.00,0.00,0.00,0.00,0.00,0.00,0.00,0.00,0.00,0.00,0.00,0.00,0.00,0.00,0.00,0.00,0.00,0.00,0.00,0.00,0.00,0.00,0.00,0.00,0.00,0.00,0.00,0.00,0.00,0.00,0.00,0.00
0.00,0.00,0.00,0.00,0.00,0.00,0.00,0.00,0.00,0.00,0.00,0.00,0.00,0.00,0.00,0.00,0.00,0.00,0.00,0.00,0.00,0.00,0.00,0.00,0.00,0.00,0.00,0.00,0.00,1597.12,1623.02,1634.92,1637.37,1642.43,1642.81,1647.04,1645.61,1647.98,1650.39,1654.24,1654.99,1656.48,1657.18,1658.28,1659.35,1662.47,1662.54,1660.67,1659.56,1660.38,1660.68,1660.17,1660.69,1663.24,1663.95,1664.93,1663.56,1664.99,1664.76,1666.10,1665.48,1665.26,1664.45,1665.41,1666.37,1665.83,1666.73,1666.40,1667.13,1665.90,1666.65,1666.75,1666.65,1666.62,1666.93,1667.87,1666.65,1665.20,1664.47,1664.54,1663.91,1662.58,1662.40,1664.71,1663.82,1661.80,1655.87,1647.77,0.00,0.00,0.00,0.00,0.00,0.00,0.00,0.00,0.00,0.00,0.00,0.00,0.00,0.00,0.00,0.00,0.00,0.00,0.00,0.00,0.00,0.00,0.00,0.00,0.00,0.00,0.00,0.00,0.00,0.00,0.00,0.00,0.00,0.00,0.00,0.00,0.00,0.00,1334.50,0.00,1662.74,1675.69,1681.17,1685.07,1686.53,1686.77,1687.84,1688.74,1690.21,1690.08,1690.43,1691.29,1693.38,1694.94,1694.72,1695.35,1696.69,1697.99,1698.86,1699.51,1700.93,1700.80,1700.63,1700.03,1700.23,1702.06,1704.29,1705.11,1706.28,1707.56,1709.03,1710.20,1710.98,1712.66,1711.82,1712.10,1711.52,1713.41,1713.34,1713.63,1713.51,1714.13,1714.51,1715.14,1715.80,1716.60,1717.99,1719.29,1721.70,1722.19,1722.38,1721.40,1722.39,1724.32,1726.29,1726.72,1725.92,1725.65,1725.90,1727.86,1728.15,1728.74,1728.85,1730.12,1730.85,1731.32,1732.54,1733.81,1735.37,1735.97,1736.25,1736.27,1736.45,1737.06,1737.58,1738.45,1738.88,1738.43,1737.97,1738.89,1740.27,1741.10,1741.98,1745.11,1747.47,1749.54,1753.33,1760.63,1766.25,1778.77,0.00,0.00,0.00,0.00,0.00,0.00,0.00,617.47,699.61,716.70,722.94,726.02,725.28,724.55,723.53,724.92,728.00,729.95,730.27,731.35,732.10,733.39,733.30,731.38,730.00,729.25,729.24,728.54,726.64,727.95,729.90,732.03,731.74,732.02,731.06,731.67,730.61,731.48,731.78,735.03,738.31,740.78,740.84,742.15,744.35,748.66,751.73,757.54,761.80,766.30,768.77,770.78,770.84,769.39,763.14,738.22,711.46,719.63,719.88,715.08,710.72,705.78,701.62,695.40,691.78,689.59,687.03,684.79,682.89,682.40,680.30,678.22,675.98,675.59,674.24,673.76,674.18,673.77,673.18,669.92,669.49,668.91,668.05,666.49,666.15,666.79,667.55,666.82,666.02,665.23,665.12,665.89,667.52,668.84,670.34,671.39,671.62,674.24,675.60,679.24,679.71,682.84,684.57,686.28,686.78,687.38,688.72,689.11,691.03,692.87,694.99,696.34,698.13,701.85,707.06,714.45,719.74,721.63,721.81,722.87,723.72,725.41,725.94,728.56,725.22,711.25,649.82,622.50,615.38,610.38,613.12,563.95,571.30,571.08,582.18,555.00,561.70,564.41,526.96,520.92,511.78,0.00,0.00,0.00,0.00,0.00,0.00,0.00,0.00,0.00,0.00,0.00,0.00,0.00,0.00,736.36,748.74,752.55,754.46,754.19,747.97,737.33,722.93,703.88,0.00,0.00,0.00,0.00,0.00,0.00,0.00,0.00,0.00,0.00,0.00,0.00,0.00,0.00,0.00,0.00,0.00,0.00,0.00,0.00,0.00,0.00,0.00,0.00,0.00,0.00,0.00,0.00,0.00,0.00,0.00,0.00,0.00,0.00,0.00,0.00,0.00,0.00,0.00,0.00,0.00,0.00,0.00,0.00,0.00,0.00,0.00,0.00,0.00,0.00,0.00,0.00,0.00,0.00,0.00,0.00,0.00,0.00,0.00,0.00,0.00,0.00,0.00,0.00,0.00,0.00,0.00,0.00,0.00,0.00,0.00,0.00,0.00,0.00,0.00,0.00,0.00,0.00,0.00,0.00,0.00,0.00,0.00,0.00,0.00,0.00,0.00,0.00,0.00,0.00,0.00,0.00,0.00,0.00,0.00,0.00,0.00,0.00,0.00,0.00,0.00,0.00,0.00,0.00,0.00,0.00,0.00,0.00,0.00,0.00,0.00,0.00,0.00
0.00,0.00,0.00,0.00,0.00,0.00,0.00,0.00,0.00,0.00,0.00,0.00,0.00,0.00,0.00,0.00,0.00,0.00,0.00,0.00,0.00,0.00,0.00,0.00,0.00,0.00,0.00,0.00,0.00,0.00,1619.47,1633.26,1638.45,1644.11,1645.22,1647.68,1646.32,1647.62,1650.09,1652.56,1653.78,1654.09,1655.01,1655.38,1656.91,1658.98,1659.22,1658.47,1658.78,1659.64,1659.23,1658.20,1657.92,1659.32,1661.24,1663.05,1662.24,1662.73,1663.17,1664.05,1663.73,1662.63,1661.71,1661.92,1663.77,1662.88,1663.73,1662.61,1664.87,1663.61,1664.71,1664.21,1664.79,1664.94,1666.95,1666.75,1666.85,1664.63,1664.84,1663.46,1663.64,1662.33,1662.61,1662.71,1662.22,1661.71,1660.14,1655.90,1649.38,0.00,0.00,0.00,0.00,0.00,0.00,0.00,0.00,0.00,0.00,0.00,0.00,0.00,0.00,0.00,0.00,0.00,0.00,0.00,0.00,0.00,0.00,0.00,0.00,0.00,0.00,0.00,0.00,0.00,0.00,0.00,0.00,0.00,0.00,0.00,0.00,0.00,0.00,1359.83,0.00,1664.20,1675.07,1681.42,1683.64,1683.85,1684.62,1685.23,1687.60,1687.56,1687.96,1689.20,1691.62,1693.56,1693.03,1692.94,1694.08,1694.74,1696.16,1696.85,1699.16,1698.71,1698.25,1698.20,1697.68,1699.29,1700.43,1702.30,1703.80,1704.98,1706.59,1707.29,1708.02,1709.09,1708.89,1709.30,1709.86,1711.60,1711.60,1711.83,1711.97,1712.23,1712.31,1711.99,1713.26,1714.31,1715.89,1716.70,1717.99,1718.43,1719.36,1719.31,1720.91,1721.27,1723.35,1723.27,1724.13,1723.79,1724.46,1725.43,1725.45,1726.23,1726.37,1728.11,1728.45,1730.17,1730.84,1732.60,1733.23,1733.98,1733.33,1732.78,1732.80,1733.91,1735.29,1736.57,1737.83,1737.18,1737.52,1738.40,1740.53,1740.86,1741.08,1743.99,1746.95,1752.27,1758.57,1771.76,0.00,0.00,0.00,0.00,0.00,0.00,0.00,0.00,675.24,713.62,722.63,728.15,730.25,728.85,725.88,724.30,725.16,725.34,727.33,728.69,728.69,728.72,727.95,728.77,727.74,726.79,726.33,726.30,726.06,724.49,723.90,724.09,725.00,725.49,725.48,725.90,724.72,726.09,726.64,728.83,729.38,730.90,733.43,735.65,737.33,739.30,740.62,742.29,743.03,748.09,754.76,760.76,765.76,767.87,770.35,771.41,772.44,767.33,738.09,722.38,721.46,716.68,711.36,704.27,700.06,693.76,690.38,687.70,685.17,681.61,679.58,677.72,675.94,673.22,671.19,670.51,669.37,669.59,670.45,669.72,670.09,667.96,669.17,667.29,666.19,663.41,663.23,662.94,664.25,664.40,665.60,665.04,665.58,665.62,668.72,669.77,671.26,671.35,672.80,674.94,675.31,676.88,678.68,681.72,683.18,683.33,683.84,684.46,686.63,687.71,691.12,692.50,695.45,697.31,702.40,707.65,712.31,715.45,718.61,719.60,719.65,720.29,722.16,724.94,725.46,726.96,722.36,704.38,644.40,629.29,623.29,631.58,624.47,607.42,596.39,570.99,568.15,638.57,644.34,543.60,542.08,535.32,521.49,504.86,520.55,502.92,0.00,0.00,0.00,0.00,0.00,0.00,0.00,0.00,0.00,744.81,753.78,756.20,757.83,759.42,760.38,761.28,754.43,743.88,730.18,721.11,703.45,0.00,0.00,0.00,0.00,0.00,0.00,0.00,0.00,0.00,0.00,0.00,0.00,0.00,0.00,0.00,0.00,0.00,0.00,0.00,0.00,0.00,0.00,0.00,0.00,0.00,0.00,0.00,0.00,0.00,0.00,0.00,0.00,0.00,0.00,0.00,0.00,0.00,0.00,0.00,0.00,0.00,0.00,0.00,0.00,0.00,0.00,0.00,0.00,0.00,0.00,0.00,0.00,0.00,0.00,0.00,0.00,0.00,0.00,0.00,0.00,0.00,0.00,0.00,0.00,0.00,0.00,0.00,0.00,0.00,0.00,0.00,0.00,0.00,0.00,0.00,0.00,0.00,0.00,0.00,0.00,0.00,0.00,0.00,0.00,0.00,0.00,0.00,0.00,0.00,0.00,0.00,0.00,0.00,0.00,0.00,0.00,0.00,0.00,0.00,0.00,0.00,0.00,0.00,0.00,0.00,0.00,0.00,0.00,0.00,0.00,0.00,0.00
0.00,0.00,0.00,0.00,0.00,0.00,0.00,0.00,0.00,0.00,0.00,0.00,0.00,0.00,0.00,0.00,0.00,0.00,0.00,0.00,0.00,0.00,0.00,0.00,0.00,0.00,0.00,0.00,0.00,0.00,1615.49,1633.59,1638.89,1643.41,1646.22,1649.55,1648.19,1648.30,1650.24,1653.30,1653.95,1653.30,1654.43,1655.99,1659.32,1660.00,1660.38,1660.04,1662.06,1662.10,1662.13,1659.86,1659.52,1659.67,1661.85,1663.92,1663.02,1664.03,1664.90,1666.34,1665.90,1664.83,1663.11,1663.43,1664.85,1665.50,1665.91,1665.76,1666.46,1665.01,1664.37,1664.45,1664.69,1665.30,1666.52,1666.45,1666.52,1665.79,1666.88,1666.31,1665.07,1663.58,1663.31,1663.66,1662.97,1662.92,1662.04,1659.46,1656.48,1652.89,1645.78,0.00,0.00,0.00,0.00,0.00,0.00,0.00,0.00,0.00,0.00,0.00,0.00,0.00,0.00,0.00,0.00,0.00,0.00,0.00,0.00,0.00,0.00,0.00,0.00,0.00,0.00,0.00,0.00,0.00,0.00,0.00,0.00,0.00,0.00,0.00,0.00,0.00,0.00,1640.50,1668.18,1678.24,1682.89,1684.67,1685.08,1685.09,1686.24,1687.39,1688.73,1691.33,1692.34,1694.11,1693.26,1694.52,1695.37,1695.31,1695.63,1697.23,1699.93,1700.79,1700.06,1700.59,1701.33,1701.40,1701.08,1700.97,1702.61,1704.77,1706.50,1707.70,1707.32,1708.01,1708.58,1710.35,1711.35,1712.08,1712.19,1712.70,1713.41,1713.60,1713.41,1713.41,1715.49,1717.35,1718.88,1718.68,1718.69,1719.19,1720.09,1720.26,1721.42,1721.56,1723.87,1724.17,1725.06,1724.93,1725.79,1726.23,1726.26,1726.81,1728.90,1730.15,1730.80,1731.21,1732.43,1733.85,1734.28,1734.46,1733.87,1734.14,1734.15,1735.25,1736.02,1737.51,1739.00,1739.06,1740.13,1740.98,1744.00,1744.41,1746.15,1749.56,1755.13,1762.27,0.00,0.00,0.00,0.00,0.00,0.00,0.00,0.00,635.80,704.66,722.84,729.05,732.25,734.71,734.51,731.09,728.69,727.98,728.90,729.04,730.27,730.82,729.33,728.32,727.34,727.65,727.61,726.81,726.89,726.53,726.67,724.57,723.93,724.56,725.80,725.89,725.39,726.55,725.27,727.23,728.12,731.16,731.07,730.72,731.94,733.45,736.29,738.60,740.41,742.12,742.60,745.95,750.33,755.58,761.89,766.74,771.86,775.69,777.99,777.04,764.12,738.61,730.36,724.48,716.87,709.37,704.21,699.07,694.76,691.19,688.24,684.35,682.14,679.93,678.16,676.37,673.80,672.83,670.76,671.29,671.59,670.98,670.00,669.29,669.38,669.12,667.47,665.64,665.21,664.53,665.43,665.75,668.16,669.30,670.37,669.83,671.49,671.28,672.77,673.65,676.30,678.45,678.54,679.68,681.44,684.06,684.78,685.46,687.08,688.52,691.36,693.81,697.34,698.54,699.48,702.06,707.09,713.65,717.69,719.35,721.27,722.07,722.79,723.08,724.59,727.72,728.74,730.47,724.85,706.09,645.65,640.24,640.14,622.09,630.99,620.01,608.35,600.13,599.59,622.02,571.97,564.68,549.47,551.96,0.00,0.00,0.00,0.00,0.00,0.00,0.00,0.00,0.00,754.79,762.41,763.49,764.71,765.05,766.18,766.88,768.01,768.87,768.60,767.19,758.94,747.18,737.11,731.85,723.68,710.16,0.00,0.00,0.00,0.00,0.00,0.00,0.00,0.00,0.00,0.00,0.00,0.00,0.00,0.00,0.00,0.00,0.00,0.00,0.00,0.00,0.00,0.00,0.00,0.00,0.00,0.00,0.00,0.00,0.00,0.00,0.00,0.00,0.00,0.00,0.00,0.00,0.00,0.00,0.00,0.00,0.00,0.00,0.00,0.00,0.00,0.00,0.00,0.00,0.00,0.00,0.00,0.00,0.00,0.00,0.00,0.00,0.00,0.00,0.00,0.00,0.00,0.00,0.00,0.00,0.00,0.00,0.00,0.00,0.00,0.00,0.00,0.00,0.00,0.00,0.00,0.00,0.00,0.00,0.00,0.00,0.00,0.00,0.00,0.00,0.00,0.00,0.00,0.00,0.00,0.00,0.00,0.00,0.00,0.00,0.00,0.00,0.00,0.00,0.00,0.00,0.00,0.00,0.00,0.00,0.00,0.00,0.00,0.00,0.00,0.00,0.00
0.00,0.00,0.00,0.00,0.00,0.00,0.00,0.00,0.00,0.00,0.00,0.00,0.00,0.00,0.00,0.00,0.00,0.00,0.00,0.00,0.00,0.00,0.00,0.00,0.00,0.00,0.00,0.00,0.00,0.00,1602.22,1628.26,1636.18,1641.71,1644.36,1647.17,1646.23,1646.07,1647.76,1649.97,1651.64,1652.14,1653.60,1654.40,1655.62,1655.73,1656.50,1657.88,1660.95,1661.44,1661.48,1658.57,1658.88,1658.93,1660.57,1660.53,1660.65,1660.85,1661.37,1662.70,1663.33,1663.33,1661.17,1661.61,1662.13,1662.85,1662.76,1663.63,1664.53,1664.02,1662.59,1662.22,1662.60,1662.93,1663.25,1662.77,1662.89,1663.00,1663.54,1663.32,1662.69,1660.97,1661.10,1660.43,1661.59,1661.42,1661.35,1658.25,1656.45,1654.68,1654.51,1648.24,0.00,0.00,0.00,0.00,0.00,0.00,0.00,0.00,0.00,0.00,0.00,0.00,0.00,0.00,0.00,0.00,0.00,0.00,0.00,0.00,0.00,0.00,0.00,0.00,0.00,0.00,0.00,0.00,0.00,0.00,0.00,0.00,0.00,0.00,0.00,0.00,0.00,0.00,1648.58,1668.95,1676.60,1681.34,1682.96,1683.13,1684.30,1685.67,1687.75,1689.20,1689.26,1689.52,1689.85,1691.57,1693.46,1692.61,1692.16,1692.81,1695.43,1697.18,1698.00,1698.92,1699.70,1698.71,1699.00,1699.57,1701.25,1703.09,1703.54,1705.31,1704.97,1706.56,1706.67,1707.50,1708.43,1709.24,1709.98,1710.82,1712.29,1713.18,1713.30,1713.75,1715.28,1716.03,1715.75,1715.61,1715.56,1716.01,1716.52,1717.86,1719.62,1719.91,1721.55,1721.94,1722.90,1723.22,1725.16,1725.68,1725.48,1725.46,1727.29,1729.20,1728.75,1729.43,1729.36,1730.64,1730.57,1731.18,1731.06,1732.18,1731.79,1733.69,1734.00,1735.49,1736.57,1736.85,1739.29,1740.87,1745.51,1746.62,1748.36,1754.99,0.00,0.00,0.00,0.00,0.00,0.00,0.00,0.00,0.00,684.70,708.84,721.26,729.16,731.45,732.63,731.64,730.77,727.03,726.40,725.57,727.68,726.99,727.77,726.40,725.38,724.32,724.47,723.96,723.77,722.73,723.06,721.53,720.69,719.60,721.24,722.01,722.28,721.01,720.80,722.52,721.80,724.04,724.13,727.82,727.13,727.50,727.02,729.13,730.91,733.05,734.30,735.25,737.61,740.81,744.33,745.31,748.26,755.13,764.07,771.27,775.52,777.09,774.30,759.61,737.67,726.74,719.02,710.38,703.13,698.05,694.05,689.56,686.00,682.03,679.50,675.14,673.34,672.53,671.83,671.17,669.27,669.73,669.06,667.87,665.60,665.10,664.99,664.87,663.34,661.46,661.20,660.97,662.90,663.33,665.88,666.44,668.47,668.00,670.70,671.07,672.54,672.49,674.70,675.79,676.26,677.01,679.91,682.83,683.68,684.00,685.61,687.00,691.11,693.93,697.60,697.75,698.76,702.82,708.06,713.96,716.77,718.51,719.89,720.34,720.35,720.86,721.37,724.32,725.36,728.20,724.84,710.16,655.74,646.56,646.65,651.41,640.48,629.80,613.68,618.17,637.54,658.70,647.22,597.18,597.60,0.00,0.00,0.00,0.00,0.00,749.21,752.67,756.98,759.75,762.56,764.60,767.18,767.61,768.81,768.02,768.65,768.52,770.00,769.58,767.91,763.95,754.03,742.85,736.34,735.26,731.28,726.08,714.21,0.00,0.00,0.00,0.00,0.00,0.00,0.00,0.00,0.00,0.00,0.00,0.00,0.00,0.00,0.00,0.00,0.00,0.00,0.00,0.00,0.00,0.00,0.00,0.00,0.00,0.00,0.00,0.00,0.00,0.00,0.00,0.00,0.00,0.00,0.00,0.00,0.00,0.00,0.00,0.00,0.00,0.00,0.00,0.00,0.00,0.00,0.00,0.00,0.00,0.00,0.00,0.00,0.00,0.00,0.00,0.00,0.00,0.00,0.00,0.00,0.00,0.00,0.00,0.00,0.00,0.00,0.00,0.00,0.00,0.00,0.00,0.00,0.00,0.00,0.00,0.00,0.00,0.00,0.00,0.00,0.00,0.00,0.00,0.00,0.00,0.00,0.00,0.00,0.00,0.00,0.00,0.00,0.00,0.00,0.00,0.00,0.00,0.00,0.00,0.00,0.00,0.00,0.00,0.00,0.00,0.00,0.00,0.00,0.00,0.00
0.00,0.00,0.00,0.00,0.00,0.00,0.00,0.00,0.00,0.00,0.00,0.00,0.00,0.00,0.00,0.00,0.00,0.00,0.00,0.00,0.00,0.00,0.00,0.00,0.00,0.00,0.00,0.00,0.00,0.00,1584.46,1624.41,1636.79,1642.23,1644.81,1647.46,1646.35,1646.29,1647.80,1650.50,1651.94,1653.47,1655.39,1657.37,1657.50,1658.71,1658.30,1660.59,1660.75,1661.81,1660.89,1659.84,1661.05,1661.76,1662.24,1660.34,1660.64,1661.12,1663.14,1663.28,1663.49,1663.10,1662.51,1662.37,1662.01,1662.48,1663.01,1664.25,1664.35,1665.95,1665.04,1665.51,1664.01,1663.96,1663.36,1663.75,1663.83,1665.20,1664.67,1664.63,1662.26,1662.45,1663.18,1665.14,1664.92,1664.83,1662.94,1661.41,1659.62,1658.22,1657.71,1656.15,1652.64,1643.51,0.00,0.00,0.00,0.00,0.00,0.00,0.00,0.00,0.00,0.00,0.00,0.00,0.00,0.00,0.00,0.00,0.00,0.00,0.00,0.00,0.00,0.00,0.00,0.00,0.00,0.00,0.00,0.00,0.00,0.00,0.00,0.00,0.00,0.00,0.00,0.00,0.00,1646.40,1667.46,1676.51,1682.32,1683.73,1684.80,1685.65,1688.95,1689.56,1689.94,1688.66,1690.34,1691.63,1694.12,1693.67,1693.72,1693.85,1695.70,1698.45,1700.28,1701.27,1701.78,1700.37,1700.95,1701.34,1702.92,1704.54,1703.20,1704.95,1704.47,1707.09,1707.31,1707.94,1708.61,1709.11,1710.20,1711.12,1712.36,1714.36,1715.01,1715.66,1715.91,1716.57,1716.96,1716.87,1716.88,1716.07,1716.07,1717.69,1720.13,1721.80,1723.02,1723.55,1723.81,1724.66,1726.72,1727.20,1726.99,1727.41,1729.54,1730.22,1729.67,1730.10,1731.14,1731.32,1731.01,1730.81,1732.43,1733.72,1734.16,1734.70,1735.07,1735.39,1737.24,1738.98,1743.77,1746.55,1751.57,1753.78,1758.72,0.00,0.00,0.00,0.00,0.00,0.00,0.00,0.00,0.00,704.29,716.06,723.66,729.84,734.20,734.10,733.49,732.97,731.76,729.27,727.07,727.47,728.15,728.23,728.06,726.45,724.48,723.54,724.32,724.01,724.39,723.64,723.46,721.29,719.91,719.15,720.62,722.18,722.12,721.24,721.37,723.18,722.08,722.46,723.05,726.50,726.76,727.96,728.30,730.51,730.76,731.84,733.33,736.09,738.63,741.51,743.58,743.15,743.30,747.73,754.82,762.78,770.05,776.99,779.24,774.50,750.47,733.91,725.58,717.26,708.21,703.49,699.87,694.74,688.35,683.74,680.41,676.88,674.63,675.33,674.84,675.18,672.39,673.31,670.73,670.11,666.18,666.73,666.23,667.03,665.61,665.06,665.16,665.14,665.51,664.72,666.14,666.98,669.79,669.79,671.02,671.41,673.01,674.65,676.68,677.98,678.94,681.45,684.33,686.97,688.01,688.67,690.43,691.91,695.85,698.03,700.18,700.47,702.70,709.29,714.72,718.70,718.81,720.80,721.29,722.54,722.68,723.69,724.04,725.52,726.90,729.93,729.10,718.21,676.98,669.30,680.06,684.53,682.81,665.60,663.50,695.42,0.00,0.00,745.08,0.00,752.28,760.99,764.57,768.10,769.15,772.01,772.68,773.90,773.48,774.12,773.50,773.16,773.16,773.67,773.32,772.78,772.93,773.34,774.11,772.27,771.44,764.96,754.71,744.09,740.85,741.11,739.80,736.50,730.26,721.57,704.01,0.00,0.00,0.00,0.00,0.00,0.00,0.00,0.00,0.00,0.00,0.00,0.00,0.00,0.00,0.00,0.00,0.00,0.00,0.00,0.00,0.00,0.00,0.00,0.00,0.00,0.00,0.00,0.00,0.00,0.00,0.00,0.00,0.00,0.00,0.00,0.00,0.00,0.00,0.00,0.00,0.00,0.00,0.00,0.00,0.00,0.00,0.00,0.00,0.00,0.00,0.00,0.00,0.00,0.00,0.00,0.00,0.00,0.00,0.00,0.00,0.00,0.00,0.00,0.00,0.00,0.00,0.00,0.00,0.00,0.00,0.00,0.00,0.00,0.00,0.00,0.00,0.00,0.00,0.00,0.00,0.00,0.00,0.00,0.00,0.00,0.00,0.00,0.00,0.00,0.00,0.00,0.00,0.00,0.00,0.00,0.00,0.00,0.00,0.00,0.00,0.00,0.00,0.00,0.00,0.00,0.00,0.00,0.00
0.00,0.00,0.00,0.00,0.00,0.00,0.00,0.00,0.00,0.00,0.00,0.00,0.00,0.00,0.00,0.00,0.00,0.00,0.00,0.00,0.00,0.00,0.00,0.00,0.00,0.00,0.00,0.00,0.00,0.00,0.00,1619.76,1635.78,1643.09,1646.49,1648.82,1647.12,1646.56,1647.22,1648.68,1650.20,1650.74,1652.54,1653.48,1654.27,1656.95,1657.39,1658.91,1657.65,1658.50,1658.03,1657.23,1658.81,1660.17,1662.39,1660.11,1659.45,1657.51,1658.62,1658.92,1660.48,1660.54,1660.60,1659.92,1660.32,1660.29,1661.46,1661.84,1662.82,1664.05,1664.28,1663.66,1662.17,1661.81,1662.19,1662.72,1663.68,1664.81,1663.76,1662.23,1659.56,1659.90,1661.43,1663.01,1662.85,1663.42,1662.24,1661.95,1660.21,1658.52,1657.91,1656.88,1657.63,1653.72,1646.65,0.00,0.00,0.00,0.00,0.00,0.00,0.00,0.00,0.00,0.00,0.00,0.00,0.00,0.00,0.00,0.00,0.00,0.00,0.00,0.00,0.00,0.00,0.00,0.00,0.00,0.00,0.00,0.00,0.00,0.00,0.00,0.00,0.00,0.00,0.00,0.00,0.00,1628.86,1664.18,1674.81,1678.14,1681.28,1682.46,1686.46,1687.07,1688.24,1687.52,1688.78,1688.99,1691.30,1691.57,1691.76,1691.61,1693.10,1695.58,1697.03,1698.55,1698.17,1697.59,1698.74,1700.93,1701.78,1702.48,1701.08,1702.87,1703.21,1704.33,1705.11,1705.19,1706.46,1707.10,1707.49,1708.39,1708.30,1710.97,1712.20,1713.80,1713.06,1713.35,1714.22,1714.76,1714.74,1712.80,1713.39,1716.06,1719.06,1720.82,1721.08,1721.09,1721.36,1722.39,1724.58,1724.93,1724.93,1725.54,1726.66,1727.67,1727.63,1728.53,1728.77,1729.43,1729.06,1729.56,1730.34,1731.92,1732.90,1733.80,1733.97,1732.84,1735.05,1738.52,1745.34,1749.01,1754.09,1758.34,0.00,0.00,0.00,0.00,0.00,0.00,0.00,0.00,0.00,702.84,718.39,722.87,726.37,729.51,731.12,730.74,729.15,728.73,728.49,726.58,723.61,723.22,724.40,724.29,723.12,721.49,720.89,720.77,720.00,719.52,719.97,720.51,720.02,717.43,715.81,714.59,716.35,717.56,718.32,717.25,718.05,718.81,718.42,717.13,717.95,720.25,722.33,723.91,724.77,726.69,726.63,728.76,728.72,730.95,733.03,737.51,740.29,740.06,739.73,740.96,744.69,748.69,758.15,768.01,775.96,774.97,761.54,737.51,728.17,718.48,708.72,701.62,697.89,692.74,685.45,680.86,678.08,675.29,672.45,671.05,670.52,670.99,669.40,670.12,668.44,668.11,666.03,666.01,666.06,665.35,664.88,664.22,664.20,663.15,663.07,663.12,664.55,664.60,666.79,666.92,669.99,671.13,673.54,674.81,675.48,676.59,678.17,681.14,683.81,686.21,688.84,688.70,689.84,689.78,694.74,696.49,699.07,699.89,704.48,711.56,716.55,718.51,718.00,718.97,718.76,719.29,719.68,721.35,722.49,723.66,725.71,729.64,734.84,740.28,741.42,747.47,751.70,757.72,759.92,764.51,763.95,768.83,770.69,772.40,774.49,774.84,776.06,776.47,774.84,774.72,773.10,775.52,776.39,776.67,775.87,775.31,775.21,774.52,774.87,774.89,773.40,771.88,771.36,771.09,770.86,769.43,769.28,760.58,750.55,742.38,742.06,742.20,741.33,739.09,735.53,730.18,721.27,707.14,0.00,0.00,0.00,0.00,0.00,0.00,0.00,0.00,0.00,0.00,0.00,0.00,0.00,0.00,0.00,0.00,0.00,0.00,0.00,0.00,0.00,0.00,0.00,0.00,0.00,0.00,0.00,0.00,0.00,0.00,0.00,0.00,0.00,0.00,0.00,0.00,0.00,0.00,0.00,0.00,0.00,0.00,0.00,0.00,0.00,0.00,0.00,0.00,0.00,0.00,0.00,0.00,0.00,0.00,0.00,0.00,0.00,0.00,0.00,0.00,0.00,0.00,0.00,0.00,0.00,0.00,0.00,0.00,0.00,0.00,0.00,0.00,0.00,0.00,0.00,0.00,0.00,0.00,0.00,0.00,0.00,0.00,0.00,0.00,0.00,0.00,0.00,0.00,0.00,0.00,0.00,0.00,0.00,0.00,0.00,0.00,0.00,0.00,0.00,0.00,0.00,0.00,0.00,0.00,0.00,0.00,0.00
0.00,0.00,0.00,0.00,0.00,0.00,0.00,0.00,0.00,0.00,0.00,0.00,0.00,0.00,0.00,0.00,0.00,0.00,0.00,0.00,0.00,0.00,0.00,0.00,0.00,0.00,0.00,0.00,0.00,0.00,0.00,1615.72,1635.46,1642.18,1645.87,1648.10,1648.54,1649.54,1650.44,1651.09,1652.23,1651.26,1652.35,1653.40,1656.94,1660.03,1659.54,1659.97,1658.15,1659.09,1658.08,1657.80,1658.71,1659.66,1661.96,1660.95,1660.00,1659.06,1659.79,1661.62,1662.29,1661.44,1660.74,1660.44,1660.98,1661.11,1662.30,1663.60,1664.44,1665.01,1665.29,1664.64,1663.24,1662.21,1663.08,1663.98,1664.13,1665.36,1664.68,1663.89,1660.46,1661.73,1662.87,1664.59,1662.53,1663.71,1663.34,1664.30,1663.08,1662.86,1661.27,1660.21,1660.09,1659.42,1656.07,1649.80,0.00,0.00,0.00,0.00,0.00,0.00,0.00,0.00,0.00,0.00,0.00,0.00,0.00,0.00,0.00,0.00,0.00,0.00,0.00,0.00,0.00,0.00,0.00,0.00,0.00,0.00,0.00,0.00,0.00,0.00,0.00,0.00,0.00,0.00,0.00,0.00,0.00,0.00,1661.00,1671.18,1677.66,1681.54,1685.41,1686.82,1689.00,1688.97,1690.17,1690.25,1691.88,1692.65,1692.69,1693.37,1693.97,1695.92,1696.60,1698.63,1698.62,1698.76,1699.29,1701.04,1701.98,1703.18,1703.76,1705.64,1705.46,1705.06,1705.29,1705.74,1706.74,1707.68,1708.61,1710.64,1710.28,1712.34,1713.03,1714.38,1713.45,1713.90,1715.80,1716.74,1716.68,1714.45,1715.48,1717.84,1720.48,1721.51,1721.81,1722.14,1723.51,1724.35,1725.64,1725.24,1726.21,1727.24,1728.07,1728.13,1728.90,1729.86,1730.70,1730.54,1730.22,1730.52,1731.85,1732.67,1733.62,1734.29,1735.05,1734.64,1738.21,1744.85,1752.18,1757.74,1765.70,0.00,0.00,0.00,0.00,0.00,0.00,0.00,0.00,0.00,700.19,722.40,726.92,727.98,727.03,729.64,731.46,731.95,730.59,730.21,729.30,727.49,724.61,724.26,723.85,723.97,722.61,722.18,721.54,721.46,719.10,718.51,719.82,721.81,719.59,717.26,715.30,715.92,714.43,715.00,715.11,717.27,718.02,718.01,716.80,715.97,718.76,721.50,724.37,724.16,724.30,725.01,726.08,727.88,729.39,731.96,734.74,737.95,740.48,741.57,741.75,741.86,743.80,746.56,753.42,760.74,769.82,771.84,768.55,750.01,737.94,728.31,717.29,707.37,701.15,696.41,689.18,684.49,680.91,680.11,676.78,674.49,672.87,673.50,671.62,672.50,670.63,671.35,669.80,670.15,670.02,668.83,667.83,667.02,666.98,666.22,666.17,666.91,668.52,668.29,669.44,670.43,672.64,672.88,674.25,676.71,678.31,680.51,682.54,685.83,688.26,689.58,691.79,692.25,694.21,694.88,698.66,700.86,703.68,706.74,711.46,717.22,720.43,721.59,721.52,721.07,719.95,720.63,721.71,724.20,724.87,726.57,728.73,736.68,754.35,776.32,785.63,787.18,785.87,785.31,784.00,784.99,783.55,783.36,783.72,783.32,783.44,782.79,783.90,783.97,782.11,780.97,779.11,779.35,779.70,779.80,780.91,780.34,780.00,778.75,778.77,778.51,776.41,775.00,774.09,773.26,772.65,771.22,770.53,758.74,750.69,745.94,747.17,745.88,744.43,741.84,739.18,734.31,728.77,722.78,716.23,706.01,0.00,0.00,0.00,0.00,0.00,0.00,0.00,0.00,0.00,0.00,0.00,0.00,0.00,0.00,0.00,0.00,0.00,0.00,0.00,0.00,0.00,0.00,0.00,0.00,0.00,0.00,0.00,0.00,0.00,0.00,0.00,0.00,0.00,0.00,0.00,0.00,0.00,0.00,0.00,0.00,0.00,0.00,0.00,0.00,0.00,0.00,0.00,0.00,0.00,0.00,0.00,0.00,0.00,0.00,0.00,0.00,0.00,0.00,0.00,0.00,0.00,0.00,0.00,0.00,0.00,0.00,0.00,0.00,0.00,0.00,0.00,0.00,0.00,0.00,0.00,0.00,0.00,0.00,0.00,0.00,0.00,0.00,0.00,0.00,0.00,0.00,0.00,0.00,0.00,0.00,0.00,0.00,0.00,0.00,0.00,0.00,0.00,0.00,0.00,0.00,0.00,0.00,0.00,0.00,0.00
0.00,0.00,0.00,0.00,0.00,0.00,0.00,0.00,0.00,0.00,0.00,0.00,0.00,0.00,0.00,0.00,0.00,0.00,0.00,0.00,0.00,0.00,0.00,0.00,0.00,0.00,0.00,0.00,0.00,0.00,0.00,1606.24,1628.88,1640.05,1644.58,1647.18,1647.38,1649.13,1649.06,1648.55,1648.78,1648.15,1649.51,1650.56,1653.95,1656.56,1657.47,1656.87,1656.43,1656.98,1658.41,1657.58,1658.09,1658.62,1660.45,1660.25,1659.11,1658.56,1657.22,1658.92,1660.24,1660.69,1659.41,1658.73,1659.56,1660.35,1660.67,1660.84,1660.72,1659.45,1660.31,1660.80,1661.19,1660.14,1661.45,1662.74,1663.50,1662.87,1662.46,1661.42,1660.04,1659.90,1660.79,1661.73,1661.91,1663.05,1662.79,1662.64,1661.53,1661.35,1660.64,1659.25,1660.04,1660.14,1658.63,1655.45,1651.79,1644.11,0.00,0.00,0.00,0.00,0.00,0.00,0.00,0.00,0.00,0.00,0.00,0.00,0.00,0.00,0.00,0.00,0.00,0.00,0.00,0.00,0.00,0.00,0.00,0.00,0.00,0.00,0.00,0.00,0.00,0.00,0.00,0.00,0.00,0.00,0.00,0.00,0.00,1655.21,1668.86,1674.95,1680.16,1682.43,1686.36,1687.63,1687.72,1687.11,1687.75,1688.99,1689.54,1690.44,1691.54,1692.46,1693.21,1694.76,1694.96,1695.13,1696.49,1698.52,1699.28,1699.96,1701.99,1703.34,1703.27,1701.78,1703.09,1703.72,1704.52,1705.71,1707.50,1709.97,1709.16,1709.03,1709.19,1711.42,1711.97,1711.34,1712.30,1713.61,1714.99,1713.60,1714.99,1715.88,1717.64,1718.12,1719.66,1720.16,1721.18,1721.24,1722.01,1722.19,1724.74,1724.63,1725.13,1725.01,1727.03,1728.36,1727.99,1728.51,1728.51,1730.17,1731.12,1731.16,1731.93,1733.38,1735.81,1738.10,1742.43,1748.64,1754.82,1765.62,0.00,0.00,0.00,0.00,0.00,0.00,0.00,0.00,616.83,693.64,717.34,725.14,728.73,727.88,724.05,725.00,726.54,727.95,726.99,725.61,724.80,723.19,721.84,721.06,721.20,720.94,719.37,718.30,717.86,718.78,716.71,716.47,716.64,718.63,716.22,713.57,711.53,712.15,710.87,710.06,710.61,712.61,713.57,712.33,712.74,713.53,716.22,718.08,719.73,719.55,720.23,721.08,722.17,723.59,725.86,728.55,731.52,734.36,736.89,738.13,739.38,739.85,741.89,743.92,748.90,751.62,758.17,762.02,763.55,755.08,744.80,733.43,721.45,708.69,699.86,693.71,688.56,683.78,678.93,677.33,675.23,673.48,672.65,672.24,670.87,670.03,670.00,670.40,669.29,668.75,667.58,666.31,665.35,664.71,664.51,663.11,664.27,666.10,668.10,667.75,667.94,669.04,671.83,672.53,673.66,674.77,677.11,680.55,683.24,685.17,687.13,689.48,692.31,692.68,694.73,695.54,700.38,702.57,706.60,708.71,712.10,715.04,717.10,717.73,718.70,717.89,717.69,718.62,720.23,722.83,722.73,725.29,727.49,740.45,765.88,784.39,791.00,791.97,791.51,789.89,788.56,788.31,787.51,786.59,785.52,784.75,784.72,784.63,785.38,785.46,784.54,782.68,780.41,778.89,778.50,776.88,777.24,775.66,776.16,775.37,777.08,776.50,775.13,772.68,771.64,770.31,769.90,769.80,765.75,753.33,746.06,743.89,744.99,743.83,741.11,739.89,738.45,737.06,733.42,730.14,725.47,717.83,708.27,694.44,0.00,0.00,0.00,0.00,0.00,0.00,0.00,0.00,0.00,0.00,0.00,0.00,0.00,0.00,0.00,0.00,0.00,0.00,0.00,0.00,0.00,0.00,0.00,0.00,0.00,0.00,0.00,0.00,0.00,0.00,0.00,0.00,0.00,0.00,0.00,0.00,0.00,0.00,0.00,0.00,0.00,0.00,0.00,0.00,0.00,0.00,0.00,0.00,0.00,0.00,0.00,0.00,0.00,0.00,0.00,0.00,0.00,0.00,0.00,0.00,0.00,0.00,0.00,0.00,0.00,0.00,0.00,0.00,0.00,0.00,0.00,0.00,0.00,0.00,0.00,0.00,0.00,0.00,0.00,0.00,0.00,0.00,0.00,0.00,0.00,0.00,0.00,0.00,0.00,0.00,0.00,0.00,0.00,0.00,0.00,0.00,0.00,0.00,0.00,0.00,0.00,0.00,0.00
0.00,0.00,0.00,0.00,0.00,0.00,0.00,0.00,0.00,0.00,0.00,0.00,0.00,0.00,0.00,0.00,0.00,0.00,0.00,0.00,0.00,0.00,0.00,0.00,0.00,0.00,0.00,0.00,0.00,0.00,0.00,1591.71,1625.79,1640.50,1644.56,1646.27,1646.68,1648.99,1649.99,1650.71,1651.17,1651.43,1652.39,1653.06,1654.34,1656.49,1658.15,1658.00,1657.28,1657.62,1658.85,1659.26,1659.32,1660.75,1660.11,1661.10,1659.81,1661.21,1658.79,1659.32,1658.46,1658.62,1659.01,1659.98,1660.88,1661.20,1660.18,1660.43,1658.00,1657.92,1658.56,1661.08,1661.94,1661.93,1662.89,1663.60,1663.92,1663.19,1663.03,1661.92,1661.66,1661.91,1663.49,1664.59,1664.04,1663.77,1662.97,1662.96,1661.92,1661.98,1661.53,1661.65,1661.63,1662.32,1661.00,1659.48,1658.73,1656.15,1648.34,0.00,0.00,0.00,0.00,0.00,0.00,0.00,0.00,0.00,0.00,0.00,0.00,0.00,0.00,0.00,0.00,0.00,0.00,0.00,0.00,0.00,0.00,0.00,0.00,0.00,0.00,0.00,0.00,0.00,0.00,0.00,0.00,0.00,0.00,0.00,0.00,0.00,1652.52,1667.09,1674.52,1680.35,1685.18,1686.53,1686.80,1686.38,1688.21,1689.73,1691.33,1691.54,1692.00,1692.94,1694.40,1696.04,1695.87,1696.17,1697.10,1699.01,1699.69,1700.85,1702.67,1703.94,1703.51,1702.97,1704.64,1705.29,1705.14,1705.66,1708.30,1710.94,1710.85,1710.06,1710.94,1711.80,1713.46,1712.53,1714.17,1714.48,1716.00,1715.50,1717.46,1717.46,1718.98,1718.85,1721.01,1720.55,1721.46,1720.88,1722.01,1722.38,1725.42,1725.09,1725.21,1724.91,1727.04,1728.55,1728.63,1729.20,1729.96,1731.44,1733.44,1734.23,1736.08,1738.40,1741.80,1745.89,1749.96,1757.94,0.00,0.00,0.00,0.00,0.00,0.00,0.00,0.00,620.44,693.47,706.46,717.06,723.82,728.25,729.64,727.65,723.88,724.53,725.80,727.34,727.28,727.26,725.86,724.29,721.58,720.84,720.30,720.84,719.48,718.14,716.98,718.36,717.83,717.76,716.29,716.77,714.06,712.99,710.53,711.45,709.88,709.60,708.82,710.96,712.28,712.37,712.52,713.99,716.43,718.12,718.77,719.27,720.12,721.40,721.83,722.69,726.31,729.96,732.07,734.19,736.94,738.55,740.26,740.85,743.71,745.96,748.64,750.13,752.68,757.14,759.20,756.42,751.48,744.99,732.17,718.13,706.01,698.82,692.76,687.84,682.60,680.22,679.02,677.83,676.69,676.11,674.56,674.29,672.90,673.40,670.78,669.98,669.36,668.71,667.97,667.82,668.25,666.91,667.55,669.84,672.24,672.28,671.70,673.02,674.34,676.56,676.90,679.01,680.97,684.00,685.79,687.79,690.80,693.31,695.50,697.04,700.06,702.15,706.37,709.43,713.35,715.71,717.92,719.64,720.39,719.73,719.86,719.65,719.62,720.67,722.30,724.82,725.52,728.40,731.82,747.74,774.83,790.01,795.11,795.56,796.13,793.93,793.08,791.50,792.41,791.21,791.07,789.73,789.44,788.86,788.23,786.90,786.55,784.76,784.02,781.50,781.32,780.03,779.16,777.47,777.05,776.65,777.58,777.14,776.74,774.59,773.45,772.52,772.92,771.69,763.53,751.49,745.80,745.20,746.37,746.14,743.26,741.07,739.58,738.96,737.29,736.53,734.40,728.75,720.13,711.35,698.43,0.00,0.00,0.00,0.00,0.00,0.00,0.00,0.00,0.00,0.00,0.00,0.00,0.00,0.00,0.00,0.00,0.00,0.00,0.00,0.00,0.00,0.00,0.00,0.00,0.00,0.00,0.00,0.00,0.00,0.00,0.00,0.00,0.00,0.00,0.00,0.00,0.00,0.00,0.00,0.00,0.00,0.00,0.00,0.00,0.00,0.00,0.00,0.00,0.00,0.00,0.00,0.00,0.00,0.00,0.00,0.00,0.00,0.00,0.00,0.00,0.00,0.00,0.00,0.00,0.00,0.00,0.00,0.00,0.00,0.00,0.00,0.00,0.00,0.00,0.00,0.00,0.00,0.00,0.00,0.00,0.00,0.00,0.00,0.00,0.00,0.00,0.00,0.00,0.00,0.00,0.00,0.00,0.00,0.00,0.00,0.00,0.00,0.00,0.00,0.00,0.00,0.00
0.00,0.00,0.00,0.00,0.00,0.00,0.00,0.00,0.00,0.00,0.00,0.00,0.00,0.00,0.00,0.00,0.00,0.00,0.00,0.00,0.00,0.00,0.00,0.00,0.00,0.00,0.00,0.00,0.00,0.00,0.00,0.00,1626.66,1643.50,1646.93,1646.07,1643.91,1643.72,1644.92,1646.12,1647.68,1648.98,1650.37,1651.23,1651.43,1653.17,1654.70,1654.93,1654.87,1655.32,1656.28,1656.44,1657.22,1659.57,1658.70,1659.12,1658.15,1659.43,1656.62,1655.30,1654.53,1655.56,1656.93,1657.98,1659.06,1660.07,1659.37,1659.47,1657.01,1656.33,1655.46,1658.10,1660.37,1660.89,1660.81,1660.37,1662.19,1661.78,1661.68,1659.67,1659.57,1658.68,1660.96,1662.09,1663.46,1662.90,1662.13,1661.33,1660.23,1659.26,1659.47,1659.51,1660.67,1661.73,1661.15,1658.83,1657.37,1656.30,1654.46,1650.01,0.00,0.00,0.00,0.00,0.00,0.00,0.00,0.00,0.00,0.00,0.00,0.00,0.00,0.00,0.00,0.00,0.00,0.00,0.00,0.00,0.00,0.00,0.00,0.00,0.00,0.00,0.00,0.00,0.00,0.00,0.00,0.00,0.00,0.00,0.00,0.00,0.00,1643.63,1662.19,1671.47,1678.91,1681.53,1682.40,1682.90,1685.56,1687.02,1689.26,1689.70,1691.23,1691.90,1693.28,1694.22,1694.22,1693.87,1694.84,1695.98,1695.93,1696.61,1698.52,1700.35,1700.56,1700.11,1702.25,1702.91,1703.11,1702.87,1705.09,1706.84,1707.62,1706.97,1707.94,1708.24,1710.69,1710.75,1712.99,1712.22,1714.09,1714.64,1716.69,1715.58,1716.26,1716.13,1717.63,1716.82,1718.48,1718.97,1720.11,1720.53,1722.43,1722.71,1722.96,1723.31,1724.19,1725.77,1726.17,1727.94,1728.62,1729.80,1732.31,1734.73,1739.57,1744.06,1749.38,1754.55,1763.25,0.00,0.00,0.00,0.00,0.00,0.00,0.00,0.00,674.97,702.91,709.03,717.80,720.31,724.52,725.22,726.74,724.79,722.91,723.49,723.74,724.99,724.28,723.34,721.15,719.37,717.62,716.78,716.56,716.76,716.45,715.24,714.90,713.84,713.58,712.48,711.22,710.37,708.77,707.97,706.59,705.35,705.14,704.88,705.18,706.23,707.94,708.57,709.08,709.78,711.74,712.90,713.66,714.13,715.48,715.78,717.04,718.39,722.19,725.58,728.29,730.77,733.25,733.99,735.92,736.93,740.72,742.96,745.42,746.61,748.65,751.38,752.48,751.44,748.07,744.64,735.23,721.38,708.57,698.83,692.55,686.59,682.26,679.19,677.64,674.88,674.27,673.65,673.58,672.83,672.15,672.93,670.65,669.58,668.25,668.30,667.72,667.98,667.74,667.04,667.34,669.30,670.78,670.29,670.38,671.44,674.67,677.55,678.97,678.91,680.68,683.71,686.86,688.53,690.63,692.24,695.11,696.61,700.65,702.73,708.07,710.51,713.68,714.54,716.90,717.16,717.46,716.29,716.94,716.78,717.16,718.26,720.63,722.79,724.33,726.95,731.62,748.25,777.84,791.47,796.57,795.86,796.49,794.20,793.99,792.38,793.26,791.72,790.24,788.64,788.00,787.79,786.73,784.80,784.87,783.17,782.60,781.01,781.40,780.40,777.83,775.36,774.29,773.47,773.42,773.08,773.65,771.71,770.09,768.97,769.46,765.66,755.32,745.88,741.90,741.75,742.35,743.25,740.76,739.05,737.94,738.43,737.00,735.32,732.46,728.33,722.78,716.32,708.31,693.98,0.00,0.00,0.00,0.00,0.00,0.00,0.00,0.00,0.00,0.00,0.00,0.00,0.00,0.00,0.00,0.00,0.00,0.00,0.00,0.00,0.00,0.00,0.00,0.00,0.00,0.00,0.00,0.00,0.00,0.00,0.00,0.00,0.00,0.00,0.00,0.00,0.00,0.00,0.00,0.00,0.00,0.00,0.00,0.00,0.00,0.00,0.00,0.00,0.00,0.00,0.00,0.00,0.00,0.00,0.00,0.00,0.00,0.00,0.00,0.00,0.00,0.00,0.00,0.00,0.00,0.00,0.00,0.00,0.00,0.00,0.00,0.00,0.00,0.00,0.00,0.00,0.00,0.00,0.00,0.00,0.00,0.00,0.00,0.00,0.00,0.00,0.00,0.00,0.00,0.00,0.00,0.00,0.00,0.00,0.00,0.00,0.00,0.00,0.00,0.00,0.00
0.00,0.00,0.00,0.00,0.00,0.00,0.00,0.00,0.00,0.00,0.00,0.00,0.00,0.00,0.00,0.00,0.00,0.00,0.00,0.00,0.00,0.00,0.00,0.00,0.00,0.00,0.00,0.00,0.00,0.00,0.00,0.00,1626.83,1643.78,1647.00,1647.60,1645.68,1645.75,1646.61,1648.13,1650.59,1651.72,1652.21,1652.02,1651.37,1653.06,1653.95,1655.74,1655.40,1656.89,1656.79,1656.75,1657.32,1658.96,1659.07,1658.63,1657.91,1658.32,1656.73,1656.80,1656.15,1656.49,1656.08,1657.66,1658.77,1661.33,1660.33,1661.96,1659.62,1659.51,1657.03,1659.29,1661.67,1662.55,1660.97,1660.66,1661.79,1662.94,1662.19,1660.90,1659.90,1659.80,1661.18,1662.16,1662.32,1662.24,1661.58,1661.28,1660.67,1660.93,1660.71,1661.09,1660.71,1661.77,1661.09,1659.89,1658.82,1658.50,1658.51,1658.04,1653.23,0.00,0.00,0.00,0.00,0.00,0.00,0.00,0.00,0.00,0.00,0.00,0.00,0.00,0.00,0.00,0.00,0.00,0.00,0.00,0.00,0.00,0.00,0.00,0.00,0.00,0.00,0.00,0.00,0.00,0.00,0.00,0.00,0.00,0.00,0.00,0.00,0.00,1628.10,1661.46,1671.98,1678.14,1681.58,1684.28,1686.78,1687.95,1689.49,1691.26,1691.81,1693.00,1693.28,1694.19,1693.83,1694.26,1695.46,1697.03,1697.32,1698.24,1699.29,1701.64,1701.96,1702.22,1702.95,1703.47,1703.78,1702.72,1704.16,1705.47,1708.01,1708.64,1709.56,1709.47,1711.22,1711.91,1714.04,1713.58,1714.46,1714.57,1716.22,1716.99,1718.20,1718.00,1717.91,1717.09,1719.23,1720.70,1723.09,1723.28,1723.99,1724.10,1724.17,1724.77,1724.40,1726.06,1727.63,1729.87,1730.31,1730.97,1734.59,1740.74,1747.28,1755.18,1762.72,0.00,0.00,0.00,0.00,0.00,0.00,0.00,0.00,0.00,692.02,709.26,717.37,720.21,725.04,725.49,727.40,726.50,725.80,724.20,723.50,725.52,725.52,726.17,724.88,724.12,722.27,720.18,717.68,716.45,714.88,715.49,716.68,716.42,716.11,713.07,713.31,710.90,709.25,707.99,707.01,707.36,705.84,705.10,704.11,704.07,704.02,705.26,707.32,708.77,708.30,707.75,708.63,710.15,712.32,713.89,715.25,715.14,717.40,718.68,722.05,724.79,727.53,730.25,732.81,734.79,736.36,738.17,741.68,744.76,746.37,748.34,749.87,752.46,752.60,752.33,749.02,748.08,741.72,730.11,715.11,704.98,697.48,691.40,687.27,684.34,682.22,678.48,676.46,675.79,674.89,675.96,675.35,677.54,674.69,673.13,671.77,671.88,671.22,671.07,671.36,672.35,672.66,673.55,674.42,674.28,675.41,677.00,680.11,683.29,685.24,685.92,686.87,689.19,692.12,693.77,695.52,696.84,699.83,701.69,705.56,707.64,711.77,714.65,717.25,718.77,720.89,721.25,720.67,719.38,721.19,721.16,720.72,719.93,721.26,722.84,725.42,729.10,735.19,752.30,782.59,794.65,799.09,797.86,798.55,796.12,796.10,794.22,794.53,793.86,793.44,792.60,790.94,790.55,789.62,787.95,786.62,785.03,784.76,784.71,784.66,783.21,779.10,776.52,774.37,773.10,770.48,770.78,773.11,773.98,772.80,771.56,770.08,762.31,751.58,745.45,743.86,743.66,743.53,743.46,742.13,739.97,738.20,736.79,736.54,736.61,735.21,731.85,726.78,721.68,716.65,707.57,695.31,677.87,0.00,0.00,0.00,0.00,0.00,0.00,0.00,0.00,0.00,0.00,0.00,0.00,0.00,0.00,0.00,0.00,0.00,0.00,0.00,0.00,0.00,0.00,0.00,0.00,0.00,0.00,0.00,0.00,0.00,0.00,0.00,0.00,0.00,0.00,0.00,0.00,0.00,0.00,0.00,0.00,0.00,0.00,0.00,0.00,0.00,0.00,0.00,0.00,0.00,0.00,0.00,0.00,0.00,0.00,0.00,0.00,0.00,0.00,0.00,0.00,0.00,0.00,0.00,0.00,0.00,0.00,0.00,0.00,0.00,0.00,0.00,0.00,0.00,0.00,0.00,0.00,0.00,0.00,0.00,0.00,0.00,0.00,0.00,0.00,0.00,0.00,0.00,0.00,0.00,0.00,0.00,0.00,0.00,0.00,0.00,0.00,0.00,0.00,0.00
0.00,0.00,0.00,0.00,0.00,0.00,0.00,0.00,0.00,0.00,0.00,0.00,0.00,0.00,0.00,0.00,0.00,0.00,0.00,0.00,0.00,0.00,0.00,0.00,0.00,0.00,0.00,0.00,0.00,0.00,0.00,0.00,1623.66,1639.31,1645.12,1645.69,1644.77,1644.44,1644.89,1645.89,1648.47,1649.80,1648.96,1648.68,1647.74,1651.29,1651.89,1653.69,1652.32,1652.97,1653.76,1654.25,1654.65,1655.93,1656.94,1656.50,1655.88,1656.16,1655.51,1655.17,1655.02,1655.54,1654.39,1654.60,1655.02,1657.62,1657.15,1658.61,1658.03,1657.56,1656.84,1658.84,1660.88,1660.58,1658.88,1659.65,1660.36,1661.03,1659.85,1658.97,1658.94,1658.88,1659.14,1659.00,1659.65,1660.43,1660.19,1659.87,1660.03,1659.82,1659.36,1658.85,1658.57,1659.11,1658.68,1658.33,1658.07,1657.96,1658.63,1657.93,1656.13,1652.05,1644.83,0.00,0.00,0.00,0.00,0.00,0.00,0.00,0.00,0.00,0.00,0.00,0.00,0.00,0.00,0.00,0.00,0.00,0.00,0.00,0.00,0.00,0.00,0.00,0.00,0.00,0.00,0.00,0.00,0.00,0.00,0.00,0.00,0.00,0.00,0.00,0.00,0.00,1659.53,1670.47,1677.42,1681.24,1683.52,1684.82,1685.98,1687.76,1688.47,1689.72,1690.29,1689.71,1689.53,1689.79,1692.23,1695.17,1696.60,1696.77,1696.66,1698.24,1698.93,1698.84,1699.15,1699.86,1700.89,1700.46,1701.70,1702.86,1705.89,1706.81,1707.54,1707.84,1709.01,1709.15,1709.41,1710.33,1711.68,1712.45,1712.72,1713.64,1714.66,1715.40,1715.63,1715.93,1718.16,1719.26,1721.45,1721.45,1722.34,1721.91,1722.17,1722.85,1722.55,1724.05,1726.02,1728.44,1729.54,1730.16,1734.58,1739.50,1749.60,1760.88,0.00,0.00,0.00,0.00,0.00,0.00,0.00,0.00,624.28,686.83,708.38,717.56,721.61,722.85,723.99,722.91,723.43,722.61,722.53,722.12,721.93,723.61,723.00,723.06,722.01,720.29,718.63,716.08,715.38,714.61,712.95,711.76,712.63,712.83,713.28,709.68,709.71,707.31,706.54,705.74,705.56,704.00,701.70,700.71,700.36,699.55,699.69,700.19,700.94,700.22,700.64,700.98,702.21,703.78,706.83,709.81,711.85,711.71,714.00,715.01,717.52,719.26,722.71,726.10,728.42,730.28,732.05,734.71,736.69,739.25,742.14,745.68,747.62,748.78,748.51,748.00,744.47,742.05,739.16,732.85,720.99,708.23,699.66,692.63,688.31,685.09,682.79,679.45,677.58,675.83,675.19,675.16,676.81,678.46,677.12,674.06,672.00,671.03,670.11,669.49,670.80,672.81,673.92,672.92,673.72,673.87,676.48,677.30,681.25,684.05,687.47,686.20,687.28,689.49,694.65,696.03,697.39,698.45,702.22,703.76,707.05,708.19,711.18,712.66,713.61,715.04,717.06,716.87,716.56,716.40,719.48,719.60,719.45,718.56,719.01,720.26,722.58,726.21,730.85,748.57,780.29,793.16,797.80,797.50,797.14,795.44,795.40,795.00,793.47,792.61,791.82,791.99,790.28,789.49,789.01,787.11,785.22,783.39,783.12,783.31,781.80,778.42,774.86,772.35,770.38,767.71,762.67,762.02,764.41,768.37,770.00,769.07,763.89,751.95,744.15,740.64,740.92,741.06,740.24,738.84,738.00,737.40,735.56,733.32,732.20,731.79,731.21,728.90,725.95,721.58,717.26,710.69,701.86,693.06,682.95,675.98,668.15,659.13,0.00,0.00,0.00,0.00,0.00,0.00,0.00,0.00,0.00,0.00,0.00,0.00,0.00,0.00,0.00,0.00,0.00,0.00,0.00,0.00,0.00,0.00,0.00,0.00,0.00,0.00,0.00,0.00,0.00,0.00,0.00,0.00,0.00,0.00,0.00,0.00,0.00,0.00,0.00,0.00,0.00,0.00,0.00,0.00,0.00,0.00,0.00,0.00,0.00,0.00,0.00,0.00,0.00,0.00,0.00,0.00,0.00,0.00,0.00,0.00,0.00,0.00,0.00,0.00,0.00,0.00,0.00,0.00,0.00,0.00,0.00,0.00,0.00,0.00,0.00,0.00,0.00,0.00,0.00,0.00,0.00,0.00,0.00,0.00,0.00,0.00,0.00,0.00,0.00,0.00,0.00,0.00,0.00,0.00,0.00
0.00,0.00,0.00,0.00,0.00,0.00,0.00,0.00,0.00,0.00,0.00,0.00,0.00,0.00,0.00,0.00,0.00,0.00,0.00,0.00,0.00,0.00,0.00,0.00,0.00,0.00,0.00,0.00,0.00,0.00,0.00,0.00,1613.47,1633.64,1643.49,1646.85,1647.62,1649.53,1649.44,1650.35,1651.33,1652.05,1650.79,1650.29,1649.60,1653.32,1654.14,1655.80,1653.18,1653.10,1653.51,1655.34,1655.51,1656.83,1657.83,1658.62,1657.04,1656.35,1655.32,1656.26,1656.38,1656.93,1654.45,1654.82,1655.11,1657.94,1656.76,1657.35,1656.76,1656.84,1657.40,1658.97,1659.79,1660.03,1659.63,1661.72,1661.14,1660.93,1660.02,1660.78,1661.84,1662.39,1661.10,1660.19,1659.76,1660.75,1660.35,1660.85,1660.38,1660.83,1659.01,1660.06,1659.18,1660.07,1658.94,1659.00,1658.90,1659.76,1661.13,1660.70,1658.80,1656.17,1654.01,1649.00,0.00,0.00,0.00,0.00,0.00,0.00,0.00,0.00,0.00,0.00,0.00,0.00,0.00,0.00,0.00,0.00,0.00,0.00,0.00,0.00,0.00,0.00,0.00,0.00,0.00,0.00,0.00,0.00,0.00,0.00,0.00,0.00,0.00,0.00,0.00,0.00,0.00,1660.01,1672.03,1677.74,1681.70,1684.12,1685.27,1686.43,1686.25,1688.29,1689.01,1689.60,1689.67,1691.31,1693.79,1697.42,1699.03,1698.26,1695.79,1696.72,1698.21,1699.67,1699.84,1700.62,1701.29,1702.00,1702.52,1703.14,1704.84,1707.05,1709.03,1710.17,1710.73,1711.19,1710.99,1711.51,1711.85,1712.55,1713.43,1714.69,1715.19,1716.02,1717.19,1717.83,1718.95,1718.86,1720.76,1721.12,1721.95,1721.78,1722.42,1724.35,1724.86,1726.38,1727.80,1730.73,1733.02,1734.31,1738.26,1745.19,0.00,0.00,0.00,0.00,0.00,0.00,0.00,0.00,0.00,672.51,697.24,710.69,720.54,726.52,728.38,726.24,724.47,723.46,723.99,723.64,722.23,721.49,721.79,723.47,723.43,723.06,723.21,723.37,721.94,718.77,716.52,715.10,713.28,711.80,711.40,711.54,711.80,710.61,709.74,708.44,707.18,707.43,706.89,704.73,701.08,700.69,701.16,700.49,700.08,699.62,699.52,697.25,697.39,697.61,698.54,699.99,702.96,708.34,711.38,712.81,713.85,714.48,716.97,719.17,721.40,724.63,726.85,729.94,732.77,735.80,737.15,738.64,740.69,744.72,746.55,747.98,748.33,747.60,744.79,741.44,738.28,736.27,729.44,718.82,706.74,698.51,693.58,690.35,687.55,685.90,683.22,681.86,679.63,680.25,680.53,681.40,680.52,679.34,677.91,676.61,674.59,674.65,675.87,678.10,679.71,679.36,680.19,681.02,683.63,685.65,688.76,692.06,694.98,694.74,695.42,696.77,700.44,701.41,702.80,704.77,709.64,712.21,714.38,714.18,715.69,716.21,716.82,717.85,719.37,719.86,719.32,718.69,720.26,720.59,722.00,721.86,721.67,722.67,724.75,728.05,731.61,748.02,780.54,795.09,799.57,799.88,799.33,797.84,798.05,797.23,795.78,794.74,794.73,795.26,793.94,793.22,791.62,789.87,787.37,785.90,784.23,783.35,780.60,776.25,771.73,769.08,767.62,765.34,757.86,754.56,757.03,765.11,770.91,769.27,760.10,747.79,743.12,741.54,742.22,741.75,740.99,739.22,738.45,737.85,735.74,733.51,732.48,732.08,731.44,729.59,727.31,725.06,722.05,717.81,711.44,704.46,698.33,692.68,687.10,679.55,669.97,0.00,0.00,0.00,0.00,0.00,0.00,0.00,0.00,0.00,0.00,0.00,0.00,0.00,0.00,0.00,0.00,0.00,0.00,0.00,0.00,0.00,0.00,0.00,0.00,0.00,0.00,0.00,0.00,0.00,0.00,0.00,0.00,0.00,0.00,0.00,0.00,0.00,0.00,0.00,0.00,0.00,0.00,0.00,0.00,0.00,0.00,0.00,0.00,0.00,0.00,0.00,0.00,0.00,0.00,0.00,0.00,0.00,0.00,0.00,0.00,0.00,0.00,0.00,0.00,0.00,0.00,0.00,0.00,0.00,0.00,0.00,0.00,0.00,0.00,0.00,0.00,0.00,0.00,0.00,0.00,0.00,0.00,0.00,0.00,0.00,0.00,0.00,0.00,0.00,0.00,0.00,0.00,0.00,0.00
0.00,0.00,0.00,0.00,0.00,0.00,0.00,0.00,0.00,0.00,0.00,0.00,0.00,0.00,0.00,0.00,0.00,0.00,0.00,0.00,0.00,0.00,0.00,0.00,0.00,0.00,0.00,0.00,0.00,0.00,0.00,0.00,1600.79,1628.21,1640.97,1642.85,1644.73,1645.74,1647.09,1647.12,1648.13,1648.57,1648.95,1648.46,1649.28,1651.41,1652.16,1652.38,1651.43,1650.92,1651.10,1651.00,1651.52,1653.04,1655.91,1657.58,1656.44,1654.91,1653.28,1652.74,1652.42,1653.45,1653.24,1653.51,1653.17,1653.98,1654.63,1654.30,1654.66,1653.52,1655.43,1656.29,1656.63,1656.55,1656.83,1658.93,1658.00,1657.00,1656.91,1658.59,1660.89,1661.11,1659.60,1657.94,1657.64,1657.24,1657.76,1657.78,1658.95,1658.63,1657.57,1658.53,1657.72,1658.93,1658.34,1658.59,1657.38,1656.78,1658.22,1658.95,1658.04,1655.84,1654.89,1653.10,1647.75,0.00,0.00,0.00,0.00,0.00,0.00,0.00,0.00,0.00,0.00,0.00,0.00,0.00,0.00,0.00,0.00,0.00,0.00,0.00,0.00,0.00,0.00,0.00,0.00,0.00,0.00,0.00,0.00,0.00,0.00,0.00,0.00,0.00,0.00,0.00,0.00,0.00,1657.75,1667.89,1675.59,1680.07,1682.50,1681.58,1682.15,1684.56,1687.69,1688.63,1689.63,1689.91,1691.34,1693.54,1694.49,1694.32,1692.75,1694.30,1696.00,1697.39,1697.71,1698.23,1699.68,1701.19,1701.68,1701.04,1702.39,1705.49,1708.51,1708.37,1707.94,1708.76,1708.72,1708.17,1707.74,1710.26,1712.67,1713.26,1712.86,1712.79,1714.22,1714.50,1715.94,1715.51,1717.04,1717.33,1718.72,1718.98,1719.46,1721.86,1723.07,1725.27,1726.81,1731.65,1735.78,1737.27,1741.09,0.00,0.00,0.00,0.00,0.00,0.00,0.00,0.00,603.08,691.37,707.86,712.48,716.57,721.17,723.29,723.79,722.35,720.99,719.93,719.11,718.86,717.74,717.32,718.60,720.19,720.66,719.96,720.14,719.93,717.67,714.97,713.65,712.06,711.75,710.00,709.54,708.49,708.45,708.14,707.10,706.38,704.64,703.68,702.15,699.56,696.86,696.16,696.92,696.24,696.54,695.69,694.93,692.56,693.08,694.24,695.17,695.83,697.13,700.85,702.71,705.06,707.02,709.92,711.94,713.74,715.66,719.25,721.75,723.88,728.09,731.62,733.39,733.47,735.57,739.78,741.98,743.06,743.47,742.32,740.50,736.88,735.28,733.79,732.50,724.20,712.52,702.42,696.59,692.34,687.99,685.68,684.00,683.12,682.61,681.42,680.93,680.43,680.67,681.32,680.91,679.64,677.41,676.80,677.44,678.86,679.15,679.70,681.21,683.92,687.11,688.90,691.81,694.36,696.36,696.64,698.45,699.27,701.51,700.87,703.59,705.42,710.45,712.85,714.72,713.80,714.44,714.15,714.11,714.32,715.76,716.81,716.50,715.73,715.76,716.56,718.53,720.41,720.74,722.55,723.81,727.28,729.88,743.60,774.93,792.52,797.57,798.18,797.41,797.35,797.18,796.49,794.81,793.64,793.23,793.07,792.57,791.19,789.30,787.62,785.19,783.07,779.87,777.65,775.04,771.70,769.26,766.38,762.08,754.50,746.72,743.06,743.33,751.44,760.16,756.79,746.85,737.04,735.46,735.03,736.67,737.28,737.52,736.59,735.51,734.58,732.51,730.51,729.00,727.49,727.13,726.38,725.45,722.70,719.88,716.11,711.67,706.40,703.65,700.08,695.67,690.51,685.03,677.45,0.00,0.00,0.00,0.00,0.00,0.00,0.00,0.00,0.00,0.00,0.00,0.00,0.00,0.00,0.00,0.00,0.00,0.00,0.00,0.00,0.00,0.00,0.00,0.00,0.00,0.00,0.00,0.00,0.00,0.00,0.00,0.00,0.00,0.00,0.00,0.00,0.00,0.00,0.00,0.00,0.00,0.00,0.00,0.00,0.00,0.00,0.00,0.00,0.00,0.00,0.00,0.00,0.00,0.00,0.00,0.00,0.00,0.00,0.00,0.00,0.00,0.00,0.00,0.00,0.00,0.00,0.00,0.00,0.00,0.00,0.00,0.00,0.00,0.00,0.00,0.00,0.00,0.00,0.00,0.00,0.00,0.00,0.00,0.00,0.00,0.00,0.00,0.00,0.00,0.00,0.00,0.00,0.00
