0.00,0.00,0.00,0.00,0.00,0.00,0.00,0.00,0.00,0.00,0.00,0.00,0.00,0.00,0.00,0.00,0.00,0.00,0.00,0.00,0.00,0.00,0.00,0.00,0.00,0.00,0.00,0.00,0.00,0.00,0.00,0.00,0.00,0.00,0.00,0.00,0.00,0.00,0.00,0.00,0.00,1589.52,1602.77,1605.76,1608.09,1612.06,1614.43,1615.25,1615.02,1617.35,1619.36,1621.38,1619.56,1619.41,1619.86,1622.29,1622.72,1622.53,1623.14,1625.33,1629.50,1631.06,1630.24,1625.68,1626.25,1625.92,1627.74,1627.41,1627.36,1627.89,1627.55,1628.13,1626.34,1625.50,1623.01,1622.95,1624.07,1626.23,1627.78,1628.16,1627.47,1627.30,1626.94,1629.06,1628.06,1630.15,1630.01,1629.93,1628.64,1628.95,1629.73,1630.65,1631.34,1632.90,1631.98,1632.89,1634.37,1634.57,1634.35,1635.59,1637.13,1637.52,1636.43,1636.12,1636.31,1637.82,1636.81,1632.07,1627.03,1626.29,1627.37,1628.27,0.00,0.00,0.00,0.00,1297.65,1317.18,1346.09,1335.08,1341.80,0.00,1606.77,1622.78,1631.08,1630.92,1631.51,1631.60,1633.28,1631.72,1630.88,1628.94,1629.31,0.00,0.00,0.00,0.00,0.00,0.00,0.00,0.00,0.00,0.00,0.00,0.00,0.00,0.00,0.00,0.00,0.00,0.00,0.00,0.00,0.00,0.00,0.00,0.00,0.00,0.00,0.00,0.00,0.00,0.00,0.00,0.00,0.00,0.00,0.00,0.00,655.50,664.84,672.20,681.65,692.61,697.86,700.30,701.73,704.08,705.10,704.06,704.76,706.90,707.50,708.05,705.77,706.36,706.33,706.65,706.89,705.90,706.38,706.48,707.78,709.04,707.59,707.11,704.52,705.53,703.47,704.67,704.73,704.77,704.39,705.95,707.80,706.78,704.03,705.41,706.39,708.13,707.35,707.52,704.88,703.54,701.71,702.30,701.56,702.09,699.93,700.31,701.34,702.54,699.89,696.93,695.66,695.97,692.44,690.52,687.58,688.86,687.02,686.09,681.67,678.98,676.28,674.03,670.62,667.28,667.43,663.50,655.61,649.71,647.07,648.59,645.12,641.85,635.98,633.13,629.31,627.62,624.88,623.78,619.34,616.52,612.53,612.45,610.66,608.14,604.43,603.68,604.24,604.73,603.15,602.42,600.11,598.49,598.41,596.80,595.79,594.45,597.27,598.46,600.29,601.57,603.54,606.58,614.35,626.25,634.11,640.56,642.70,645.00,646.01,649.04,651.79,655.06,655.98,656.75,656.20,657.32,656.73,655.71,654.45,655.06,656.23,658.15,657.94,656.45,654.30,653.76,652.11,651.74,650.72,651.48,650.10,649.73,648.66,647.39,645.82,643.73,642.29,639.72,637.45,635.30,633.11,631.42,629.81,629.14,628.96,629.79,629.81,630.90,630.82,631.02,631.87,635.73,644.55,652.52,661.06,666.75,668.85,669.46,667.52,665.91,663.98,663.68,664.38,665.63,665.94,665.51,665.04,666.04,666.19,664.87,662.87,663.53,663.21,662.51,662.70,663.69,664.99,661.03,653.37,643.01,634.22,630.57,626.52,624.18,619.84,617.25,615.10,612.51,609.17,608.78,608.57,608.83,606.24,606.12,607.77,608.45,606.29,602.35,598.82,596.42,593.06,589.09,586.98,585.04,582.21,580.04,576.97,575.94,570.27,565.96,563.00,563.24,564.37,565.75,563.40,558.32,553.15,550.75,550.08,548.45,545.37,543.58,541.31,541.73,542.45,544.20,545.67,0.00,0.00,544.07,543.84,0.00,0.00,543.28,543.28,543.58,543.90,545.66,545.40,546.01,544.55,545.27,0.00,542.78,541.47,543.29,543.19,544.60,545.45,546.72,546.31,545.47,544.51,543.65,542.89,542.83,541.44,540.55,539.21,539.28,538.45,536.82,536.08,534.72,536.90,538.41,544.84,554.24,563.34,566.76,569.79,572.52,572.11,569.93,562.00,552.75,528.92,0.00,0.00,0.00,0.00,0.00,0.00,0.00,0.00,0.00,0.00,0.00,0.00,0.00,0.00,0.00,0.00,0.00,0.00,0.00,0.00,0.00,0.00,0.00,0.00,0.00,0.00,0.00,0.00,0.00,0.00,0.00,0.00,0.00,0.00,0.00,0.00,0.00,0.00,0.00,0.00,0.00,0.00,0.00,0.00
0.00,0.00,0.00,0.00,0.00,0.00,0.00,0.00,0.00,0.00,0.00,0.00,0.00,0.00,0.00,0.00,0.00,0.00,0.00,0.00,0.00,0.00,0.00,0.00,0.00,0.00,0.00,0.00,0.00,0.00,0.00,0.00,0.00,0.00,0.00,0.00,0.00,0.00,0.00,0.00,0.00,1578.61,1595.09,1599.26,1603.70,1607.61,1610.05,1610.11,1610.90,1614.25,1616.21,1617.90,1618.73,1619.38,1619.63,1619.30,1620.33,1620.20,1621.31,1622.59,1626.28,1628.48,1628.02,1626.07,1625.66,1624.63,1625.40,1624.36,1624.86,1624.55,1625.67,1626.46,1625.68,1623.15,1621.76,1620.70,1622.96,1623.15,1624.64,1624.82,1625.73,1624.72,1624.47,1625.45,1626.11,1627.58,1627.75,1627.38,1626.80,1627.83,1628.78,1629.41,1630.19,1631.06,1629.90,1629.82,1630.88,1631.70,1632.58,1633.51,1634.53,1634.31,1634.45,1634.08,1634.71,1636.35,1635.76,1630.98,1625.65,1624.85,1625.84,1626.52,1630.50,0.00,0.00,0.00,1300.30,1312.73,1343.59,1342.01,1330.40,0.00,1597.57,1619.34,1629.36,1629.87,1632.15,1633.53,1634.90,1633.67,1632.65,1631.17,0.00,0.00,0.00,0.00,0.00,0.00,0.00,0.00,0.00,0.00,0.00,0.00,0.00,0.00,0.00,0.00,0.00,0.00,0.00,0.00,0.00,0.00,0.00,0.00,0.00,0.00,0.00,0.00,0.00,0.00,0.00,0.00,0.00,0.00,0.00,0.00,0.00,673.67,681.43,684.80,689.39,695.00,698.37,699.69,699.74,702.49,703.39,703.09,703.33,705.02,705.87,704.87,703.30,703.76,704.11,703.23,702.07,701.58,703.32,705.15,706.20,707.22,705.57,704.08,701.47,702.56,702.79,703.51,704.39,703.45,704.52,704.39,706.76,705.13,702.81,701.99,702.65,703.99,703.94,702.97,701.76,701.24,701.01,700.35,700.70,700.76,700.23,699.95,700.88,701.18,698.52,695.78,694.38,694.53,691.46,688.88,685.41,684.20,683.18,683.15,680.99,677.62,674.41,670.88,668.40,666.39,667.28,662.95,654.95,649.50,646.89,646.00,642.19,638.53,635.38,631.91,627.52,623.90,622.28,621.45,618.02,615.06,610.94,609.70,607.31,606.06,604.14,603.02,602.05,602.21,600.32,599.97,597.07,596.18,594.53,591.70,589.96,588.76,591.36,591.29,593.84,595.31,597.99,598.78,603.29,611.03,619.14,626.73,632.81,638.53,642.06,643.90,644.58,647.18,649.96,652.46,652.97,653.60,652.52,651.42,650.30,650.83,651.42,651.85,652.19,651.95,651.64,650.34,647.76,646.15,645.47,646.77,646.82,647.19,645.81,644.00,641.84,640.67,639.62,637.82,634.84,631.98,628.98,627.33,626.04,625.47,625.63,625.88,626.21,626.10,626.40,627.10,628.99,631.89,635.77,639.76,646.15,653.78,659.73,663.11,664.26,662.51,661.82,660.88,662.00,661.18,661.44,660.38,660.51,661.17,662.44,661.73,659.41,659.29,660.00,659.94,660.18,658.34,657.54,648.72,637.53,626.53,620.88,618.56,616.77,616.24,613.50,609.70,606.97,605.74,605.54,605.52,605.69,605.54,602.95,601.66,603.13,604.62,603.15,598.50,595.39,592.45,589.38,584.83,584.00,584.18,581.64,576.48,571.49,570.17,566.40,562.79,560.85,562.15,562.08,560.74,556.82,551.05,546.52,544.41,545.34,544.75,543.59,543.19,541.30,540.59,540.69,543.05,545.24,0.00,0.00,0.00,541.58,0.00,541.35,542.01,541.24,540.00,539.85,0.00,541.03,0.00,541.91,542.09,541.17,0.00,0.00,540.05,541.17,542.89,542.48,542.13,542.12,542.80,542.59,540.42,539.07,538.40,537.88,536.55,535.52,537.07,538.35,537.27,535.24,532.86,533.89,532.67,534.32,538.36,546.96,553.41,559.16,562.35,562.21,559.26,550.98,536.36,510.28,0.00,0.00,0.00,0.00,0.00,0.00,0.00,0.00,0.00,0.00,0.00,0.00,0.00,0.00,0.00,0.00,0.00,0.00,0.00,0.00,0.00,0.00,0.00,0.00,0.00,0.00,0.00,0.00,0.00,0.00,0.00,0.00,0.00,0.00,0.00,0.00,0.00,0.00,0.00,0.00,0.00,0.00,0.00,0.00
0.00,0.00,0.00,0.00,0.00,0.00,0.00,0.00,0.00,0.00,0.00,0.00,0.00,0.00,0.00,0.00,0.00,0.00,0.00,0.00,0.00,0.00,0.00,0.00,0.00,0.00,0.00,0.00,0.00,0.00,0.00,0.00,0.00,0.00,0.00,0.00,0.00,0.00,0.00,0.00,0.00,0.00,1578.47,1588.11,1594.76,1602.33,1604.74,1606.43,1607.59,1611.99,1613.90,1616.26,1617.36,1620.44,1620.00,1620.61,1620.47,1621.84,1622.41,1623.84,1625.29,1627.54,1627.20,1629.24,1626.56,1626.12,1624.54,1624.90,1624.38,1624.85,1625.51,1627.64,1626.32,1624.54,1621.57,1621.58,1624.34,1625.73,1626.03,1624.70,1624.04,1623.14,1624.69,1626.57,1627.33,1627.07,1625.52,1626.53,1626.49,1629.44,1629.95,1631.05,1632.01,1632.10,1631.99,1631.16,1631.46,1631.26,1631.87,1632.79,1634.04,1634.47,1635.18,1634.62,1635.67,1637.28,1635.79,1630.44,1626.45,1626.12,1626.70,1626.07,1629.25,0.00,0.00,0.00,1310.93,1316.65,1342.60,0.00,1318.55,0.00,0.00,1617.23,1630.60,1631.71,1633.28,1634.03,1635.38,1635.37,1634.46,1633.13,1631.51,1629.88,0.00,0.00,0.00,0.00,0.00,0.00,0.00,0.00,0.00,0.00,0.00,0.00,0.00,0.00,0.00,0.00,0.00,0.00,0.00,0.00,0.00,0.00,0.00,0.00,0.00,0.00,0.00,0.00,0.00,0.00,0.00,0.00,0.00,0.00,673.90,687.16,692.62,693.86,694.60,697.24,699.05,700.67,700.14,701.74,702.54,701.87,702.84,704.37,707.43,706.18,704.53,704.04,704.78,705.55,704.68,704.12,705.12,705.95,706.05,706.67,705.69,704.94,702.81,704.92,705.37,705.53,705.48,706.26,706.76,706.84,706.52,705.89,704.04,703.91,704.56,705.51,705.56,704.74,704.53,704.33,704.35,703.38,703.95,703.41,702.98,701.95,701.56,700.82,698.30,695.89,694.18,693.62,691.84,690.29,686.87,683.84,682.59,682.52,682.41,679.45,676.43,672.02,669.37,668.44,667.94,663.02,656.06,652.73,650.24,646.82,641.32,638.65,635.31,632.96,627.96,625.23,623.26,622.66,618.85,615.98,613.00,612.56,610.51,608.92,606.47,603.95,601.70,600.99,599.44,599.13,597.32,596.50,594.23,591.34,589.99,589.59,591.21,591.10,592.29,593.05,595.35,596.75,599.69,603.13,607.64,613.68,621.74,631.58,639.21,642.75,643.72,645.95,647.91,650.82,651.09,652.67,652.93,653.77,651.75,651.07,650.44,650.60,649.82,650.29,650.47,650.59,647.82,646.77,645.83,647.10,646.62,646.26,645.24,644.44,642.58,641.89,640.32,639.34,636.04,634.30,631.20,630.19,627.35,626.70,626.27,626.86,626.33,625.08,624.84,624.92,625.39,627.84,629.42,632.52,636.60,644.38,652.52,658.09,660.53,661.46,662.23,663.08,663.05,661.80,660.84,660.37,659.75,661.72,663.46,663.84,660.90,659.72,660.69,659.95,658.66,652.17,648.65,638.81,630.13,621.87,617.27,615.70,614.75,615.34,611.80,608.51,605.30,605.51,604.50,604.68,604.70,605.65,603.54,603.16,603.33,603.38,599.92,596.25,594.48,592.41,588.83,585.26,584.19,583.42,580.08,574.98,572.37,571.33,568.13,563.46,560.79,560.55,557.80,556.83,553.24,550.13,546.31,544.45,545.04,544.38,544.20,0.00,543.00,541.92,0.00,0.00,0.00,0.00,0.00,0.00,0.00,543.71,0.00,542.47,540.52,539.69,539.92,0.00,0.00,543.47,542.09,543.57,0.00,542.67,541.23,542.94,543.71,544.07,544.08,543.34,543.79,542.93,543.89,542.41,540.92,539.83,540.14,540.13,538.07,537.63,538.47,539.16,537.74,535.00,534.20,533.11,532.05,531.43,533.62,537.95,543.66,547.89,548.43,544.26,533.81,518.09,0.00,0.00,0.00,0.00,0.00,0.00,0.00,0.00,0.00,0.00,0.00,0.00,0.00,0.00,0.00,0.00,0.00,0.00,0.00,0.00,0.00,0.00,0.00,0.00,0.00,0.00,0.00,0.00,0.00,0.00,0.00,0.00,0.00,0.00,0.00,0.00,0.00,0.00,0.00,0.00,0.00,0.00,0.00,0.00,0.00
0.00,0.00,0.00,0.00,0.00,0.00,0.00,0.00,0.00,0.00,0.00,0.00,0.00,0.00,0.00,0.00,0.00,0.00,0.00,0.00,0.00,0.00,0.00,0.00,0.00,0.00,0.00,0.00,0.00,0.00,0.00,0.00,0.00,0.00,0.00,0.00,0.00,0.00,0.00,0.00,0.00,0.00,0.00,0.00,1567.63,1580.44,1591.98,1596.09,1599.34,1602.84,1606.40,1610.37,1614.27,1616.52,1617.49,1617.62,1618.03,1618.88,1620.07,1620.87,1620.96,1622.33,1622.80,1625.85,1623.61,1623.68,1623.21,1622.95,1623.30,1622.60,1622.47,1623.21,1623.07,1621.96,1619.40,1618.51,1620.59,1621.84,1622.65,1622.77,1623.39,1622.85,1623.78,1624.08,1625.48,1624.78,1624.84,1625.44,1625.76,1627.17,1627.70,1629.04,1629.93,1629.36,1629.52,1628.62,1629.49,1629.17,1630.45,1629.75,1631.04,1630.53,1632.87,1632.48,1634.11,1634.65,1632.42,1627.30,1624.94,1625.53,1626.17,1624.54,1625.23,0.00,0.00,0.00,1318.42,1309.94,1335.02,0.00,1313.63,1354.09,0.00,1614.13,1626.62,1628.65,1630.02,1631.42,1634.18,1633.34,1632.36,1630.20,1629.64,1627.70,0.00,0.00,0.00,0.00,0.00,0.00,0.00,0.00,0.00,0.00,0.00,0.00,0.00,0.00,0.00,0.00,0.00,0.00,0.00,0.00,0.00,0.00,0.00,0.00,0.00,0.00,0.00,0.00,0.00,0.00,0.00,0.00,0.00,658.84,679.61,688.34,693.70,694.97,696.38,695.90,697.15,697.32,698.11,698.37,699.71,698.95,700.01,700.73,704.91,704.25,704.02,702.59,703.81,703.52,702.31,700.86,702.09,701.87,701.30,701.09,702.22,701.43,700.49,701.69,704.18,704.73,704.32,703.98,703.74,702.50,703.16,703.74,704.80,702.93,702.66,702.09,702.87,701.60,702.07,701.47,702.29,701.68,702.15,700.96,700.86,700.55,699.36,697.42,695.98,695.20,694.36,692.92,691.78,688.73,685.50,681.37,680.48,678.46,678.72,677.03,674.79,669.34,666.75,664.92,662.85,657.40,653.66,652.04,650.02,644.29,640.06,638.24,636.54,633.45,627.27,625.08,622.90,622.64,618.64,616.18,612.29,610.59,607.89,607.20,605.37,602.31,598.66,596.37,596.06,594.75,593.36,591.15,589.05,587.66,587.50,587.79,587.85,586.64,587.16,587.06,588.26,589.86,591.38,593.57,596.87,601.22,607.35,616.37,627.89,635.51,639.38,641.05,641.02,642.57,642.96,645.24,646.52,649.17,649.40,648.23,647.33,646.09,644.79,644.23,644.89,645.71,644.69,644.34,643.55,643.78,642.33,0.00,640.38,640.01,638.76,637.10,635.60,0.00,633.62,632.86,630.94,629.93,626.76,625.61,624.28,623.42,622.37,620.57,619.94,619.57,619.54,622.24,621.84,623.01,623.06,628.34,636.87,645.34,651.95,654.56,657.05,657.51,658.41,657.56,658.82,658.83,659.99,660.82,662.28,662.77,660.96,659.60,658.04,653.09,647.98,640.51,635.54,626.57,619.76,614.76,612.50,611.20,610.06,610.58,607.42,604.82,601.55,600.15,600.00,600.39,601.65,601.37,600.75,600.75,601.57,600.89,596.32,593.00,590.98,589.26,585.36,583.09,581.46,579.16,575.32,0.00,570.14,569.33,566.60,562.14,557.24,554.64,550.77,549.71,547.47,545.20,0.00,540.23,0.00,0.00,0.00,0.00,0.00,0.00,0.00,0.00,0.00,0.00,0.00,0.00,0.00,0.00,0.00,0.00,0.00,0.00,0.00,0.00,0.00,0.00,539.73,0.00,0.00,0.00,0.00,0.00,542.85,541.77,0.00,540.40,541.78,541.63,542.90,541.91,541.30,539.50,539.82,539.17,537.63,536.43,536.46,536.88,536.13,535.21,534.67,534.34,532.46,530.16,528.39,527.40,528.53,529.96,530.28,524.27,514.74,500.61,0.00,0.00,0.00,0.00,0.00,0.00,0.00,0.00,0.00,0.00,0.00,0.00,0.00,0.00,0.00,0.00,0.00,0.00,0.00,0.00,0.00,0.00,0.00,0.00,0.00,0.00,0.00,0.00,0.00,0.00,0.00,0.00,0.00,0.00,0.00,0.00,0.00,0.00,0.00,0.00,0.00,0.00,0.00,0.00,0.00
0.00,0.00,0.00,0.00,0.00,0.00,0.00,0.00,0.00,0.00,0.00,0.00,0.00,0.00,0.00,0.00,0.00,0.00,0.00,0.00,0.00,0.00,0.00,0.00,0.00,0.00,0.00,0.00,0.00,0.00,0.00,0.00,0.00,0.00,0.00,0.00,0.00,0.00,0.00,0.00,0.00,0.00,0.00,0.00,0.00,0.00,0.00,1571.34,1578.08,1585.85,1593.71,1602.23,1606.98,1610.30,1612.94,1616.21,1617.80,1619.49,1620.77,1621.68,1620.61,1621.41,1619.79,1622.56,1622.55,1624.70,1624.08,1623.68,1624.43,1624.06,1623.03,1623.60,1622.94,1621.99,1619.27,1619.49,1620.43,1621.46,1622.02,1622.68,1622.98,1622.77,1624.12,1625.30,1625.61,1625.24,1624.84,1626.37,1626.96,1627.96,1627.85,1627.78,1628.81,1629.01,1630.17,1628.59,1629.25,1629.14,1630.60,1630.64,1631.89,1632.63,1633.74,1633.72,1635.32,1635.43,1633.35,1627.62,1625.74,1625.31,1626.42,1625.85,1626.59,0.00,0.00,0.00,0.00,1300.17,1318.45,1344.91,1324.79,1348.90,0.00,1606.27,1621.79,1626.96,1629.67,1631.02,1633.42,1632.31,1632.01,1630.34,1630.88,1629.37,1627.15,0.00,0.00,0.00,0.00,0.00,0.00,0.00,0.00,0.00,0.00,0.00,0.00,0.00,0.00,0.00,0.00,0.00,0.00,0.00,0.00,0.00,0.00,0.00,0.00,0.00,0.00,0.00,0.00,0.00,0.00,0.00,0.00,663.45,682.43,689.19,693.76,696.40,698.53,697.40,697.32,697.84,698.52,697.75,697.93,697.77,699.64,699.81,703.10,702.95,703.96,703.79,704.33,705.07,703.88,702.88,702.59,701.57,702.08,700.80,702.29,701.60,703.16,704.72,706.03,705.75,704.04,704.84,704.17,704.46,704.21,705.83,705.94,704.87,704.06,704.07,704.98,704.81,705.10,703.84,703.67,703.16,702.97,702.55,702.37,702.29,699.94,697.36,695.84,696.04,696.56,694.88,692.78,689.28,687.55,683.85,682.60,678.11,677.29,675.68,674.56,670.37,666.36,663.56,660.50,656.64,653.60,652.38,650.49,645.61,640.80,639.15,636.78,635.00,628.86,627.75,624.19,623.76,619.47,617.34,612.59,611.60,608.91,609.13,606.13,603.21,599.15,596.17,596.49,595.07,593.28,590.16,589.64,589.56,589.34,588.48,588.29,587.59,586.70,584.61,583.86,584.66,586.83,589.19,592.54,594.73,598.27,602.68,612.26,622.81,632.05,637.67,638.57,640.16,640.23,643.47,645.50,648.12,648.73,648.03,648.00,646.97,646.20,645.32,644.23,644.58,644.02,645.06,644.16,644.43,643.28,643.25,642.00,640.59,637.83,635.58,635.16,635.24,635.79,635.95,635.01,633.01,629.25,628.51,627.31,624.92,622.18,620.40,619.03,618.57,617.88,621.06,620.31,621.28,620.13,622.57,627.60,635.53,643.67,649.25,652.53,654.32,655.56,656.61,657.86,659.96,661.77,662.76,661.85,661.75,659.74,658.09,653.91,647.73,641.51,634.01,627.72,620.69,616.01,613.49,610.48,609.78,607.92,0.00,0.00,605.10,601.91,600.04,598.66,599.73,600.29,601.41,602.04,603.70,602.44,599.85,595.28,593.54,591.50,590.21,585.46,584.04,579.20,576.74,573.61,572.70,570.52,569.03,566.07,562.38,556.52,552.83,549.11,548.38,547.40,0.00,0.00,0.00,0.00,0.00,0.00,0.00,0.00,0.00,547.15,547.53,0.00,0.00,0.00,0.00,0.00,0.00,0.00,541.65,0.00,540.33,539.97,541.99,540.57,0.00,542.44,544.60,0.00,0.00,0.00,0.00,543.11,541.53,542.06,542.44,543.80,542.89,543.29,543.33,543.04,541.84,541.51,541.31,540.78,539.24,538.85,539.95,539.95,539.42,536.77,536.15,533.99,532.26,529.76,527.02,526.80,526.34,525.52,518.91,508.98,0.00,0.00,0.00,0.00,0.00,0.00,0.00,0.00,0.00,0.00,0.00,0.00,0.00,0.00,0.00,0.00,0.00,0.00,0.00,0.00,0.00,0.00,0.00,0.00,0.00,0.00,0.00,0.00,0.00,0.00,0.00,0.00,0.00,0.00,0.00,0.00,0.00,0.00,0.00,0.00,0.00,0.00,0.00,0.00,0.00,0.00
0.00,0.00,0.00,0.00,0.00,0.00,0.00,0.00,0.00,0.00,0.00,0.00,0.00,0.00,0.00,0.00,0.00,0.00,0.00,0.00,0.00,0.00,0.00,0.00,0.00,0.00,0.00,0.00,0.00,0.00,0.00,0.00,0.00,0.00,0.00,0.00,0.00,0.00,0.00,0.00,0.00,0.00,0.00,0.00,0.00,0.00,0.00,0.00,0.00,0.00,1568.73,1582.51,1591.74,1597.00,1600.93,1606.52,1609.86,1611.33,1614.99,1615.65,1613.81,1610.56,1584.84,1571.51,1582.44,1605.91,1620.79,1620.62,1621.40,1621.11,1621.46,1620.77,1620.61,1618.80,1618.10,1617.40,1618.10,1618.07,1619.29,1620.89,1622.61,1622.40,1622.00,1622.26,1623.35,1624.28,1625.13,1625.45,1626.11,1626.80,1626.83,1625.17,1624.97,1626.35,1628.54,1628.54,1629.10,1628.97,1629.40,1628.66,1629.35,1629.70,1630.86,1630.95,1631.97,1631.60,1630.03,1625.20,1623.06,1622.71,1624.34,1625.05,1626.66,0.00,0.00,0.00,0.00,1290.80,1305.15,1331.64,1327.40,1334.49,0.00,0.00,1609.07,1620.91,1625.37,1628.75,1630.52,1629.09,1628.97,1628.18,1629.83,1629.55,1627.74,0.00,0.00,0.00,0.00,0.00,0.00,0.00,0.00,0.00,0.00,0.00,0.00,0.00,0.00,0.00,0.00,0.00,0.00,0.00,0.00,0.00,0.00,0.00,0.00,0.00,0.00,0.00,0.00,0.00,0.00,0.00,0.00,656.90,680.27,686.46,691.76,694.48,697.93,695.72,695.41,695.73,696.22,695.55,694.70,696.76,698.44,699.03,700.06,700.00,701.47,702.56,704.23,703.54,701.98,699.58,698.63,697.58,699.08,698.44,700.24,699.78,702.13,701.36,702.84,702.33,701.22,699.70,700.48,701.69,704.28,705.10,705.96,703.63,702.60,701.56,702.70,702.91,703.64,701.59,700.27,699.82,701.28,702.02,702.23,700.55,698.50,695.68,694.11,695.06,696.37,694.74,691.00,686.66,685.38,683.25,681.42,677.40,674.57,672.67,671.61,668.48,664.84,660.66,658.34,655.64,652.79,649.99,647.63,642.93,638.77,635.19,634.47,632.18,628.25,625.78,622.51,621.35,617.75,614.10,609.17,607.15,606.66,606.35,602.63,600.00,598.06,596.50,596.30,593.16,591.30,587.82,588.26,587.23,586.34,583.81,583.50,582.45,582.42,581.46,580.81,580.41,581.75,583.56,585.84,585.46,587.14,588.88,594.93,602.55,613.68,623.91,631.76,636.62,638.30,639.40,641.56,642.87,644.93,643.92,644.47,642.99,643.12,641.67,640.82,639.89,640.49,641.38,640.80,641.25,640.93,641.26,639.62,636.98,635.80,633.69,634.49,633.51,633.36,631.76,630.09,627.96,626.23,625.22,624.74,621.44,617.98,615.97,614.56,614.78,614.88,614.44,613.75,612.30,613.82,614.78,618.59,623.30,630.04,637.78,644.22,646.88,648.18,649.58,653.00,655.50,657.89,656.72,655.11,653.51,652.36,650.02,645.31,638.08,631.03,624.52,619.16,613.31,609.31,607.17,605.37,605.33,0.00,0.00,0.00,600.77,0.00,0.00,0.00,598.32,0.00,599.92,601.24,601.17,599.31,596.37,593.88,592.38,590.35,588.12,583.74,580.95,576.96,574.82,572.10,569.10,565.79,564.71,563.21,560.16,555.62,552.03,549.01,546.33,0.00,543.65,0.00,0.00,0.00,0.00,0.00,0.00,0.00,549.75,552.10,0.00,0.00,0.00,0.00,0.00,0.00,0.00,0.00,0.00,0.00,0.00,0.00,0.00,0.00,0.00,542.16,543.15,0.00,0.00,0.00,0.00,0.00,0.00,541.53,541.75,541.80,540.72,539.93,539.58,539.89,539.62,539.78,538.68,538.79,537.63,538.45,539.01,539.53,538.16,535.12,534.21,532.74,531.98,530.05,527.66,527.75,526.83,525.84,518.42,507.20,0.00,0.00,0.00,0.00,0.00,0.00,0.00,0.00,0.00,0.00,0.00,0.00,0.00,0.00,0.00,0.00,0.00,0.00,0.00,0.00,0.00,0.00,0.00,0.00,0.00,0.00,0.00,0.00,0.00,0.00,0.00,0.00,0.00,0.00,0.00,0.00,0.00,0.00,0.00,0.00,0.00,0.00,0.00,0.00,0.00,0.00
0.00,0.00,0.00,0.00,0.00,0.00,0.00,0.00,0.00,0.00,0.00,0.00,0.00,0.00,0.00,0.00,0.00,0.00,0.00,0.00,0.00,0.00,0.00,0.00,0.00,0.00,0.00,0.00,0.00,0.00,0.00,0.00,0.00,0.00,0.00,0.00,0.00,0.00,0.00,0.00,0.00,0.00,0.00,0.00,0.00,0.00,0.00,0.00,0.00,0.00,0.00,0.00,0.00,0.00,1569.87,1577.35,1580.72,1585.91,1585.40,1587.01,0.00,1586.38,1563.34,1552.65,1560.95,1601.03,1620.49,1621.80,1621.80,1621.35,1621.93,1621.31,1621.18,1619.46,1619.61,1619.56,1618.46,1618.28,1619.37,1621.80,1623.29,1622.87,1622.63,1623.02,1622.02,1621.85,1622.41,1624.84,1626.34,1627.00,1626.27,1625.29,1624.14,1626.74,1627.56,1629.60,1629.47,1629.91,1629.13,1629.27,1629.80,1630.55,1631.00,1630.70,1631.16,1630.70,1629.29,1624.07,1621.43,1622.13,1623.96,1625.67,1626.46,0.00,0.00,0.00,0.00,1296.43,1302.56,1329.21,1325.76,1326.50,1340.69,0.00,0.00,1611.12,1624.94,1631.82,1633.18,1631.32,1631.04,1632.00,1633.86,1634.53,1632.13,0.00,0.00,0.00,0.00,0.00,0.00,0.00,0.00,0.00,0.00,0.00,0.00,0.00,0.00,0.00,0.00,0.00,0.00,0.00,0.00,0.00,0.00,0.00,0.00,0.00,0.00,0.00,0.00,0.00,0.00,0.00,0.00,652.56,679.22,688.62,692.54,695.21,696.86,695.70,695.24,697.57,698.05,697.77,695.38,697.51,698.98,699.75,700.50,699.68,701.34,702.81,704.58,703.82,703.16,702.78,700.79,699.72,700.89,701.95,703.19,702.92,703.91,702.90,703.00,703.56,702.76,702.23,703.03,704.67,706.31,705.56,705.23,704.13,704.61,704.05,704.10,704.89,706.30,705.06,702.99,701.87,704.06,705.09,704.52,702.17,700.12,699.29,697.46,697.31,696.40,694.09,690.69,686.74,685.04,682.85,681.18,679.63,676.36,674.19,671.84,669.39,665.63,661.65,660.63,658.07,653.86,649.78,646.55,643.19,638.97,635.69,632.57,630.55,627.74,625.51,622.66,621.02,618.58,614.80,610.49,608.96,607.49,605.58,601.91,601.35,600.86,599.78,597.99,595.54,593.65,592.37,592.01,589.82,587.18,582.91,582.99,581.34,582.97,580.99,580.77,579.02,581.63,582.30,583.02,580.67,582.13,583.88,587.15,591.27,598.11,608.91,621.25,630.76,635.07,636.62,640.19,642.61,644.84,643.93,643.86,642.37,643.25,642.79,642.19,641.05,641.15,642.52,641.90,641.45,640.86,641.10,640.31,638.49,638.36,637.36,637.16,635.43,634.24,632.91,630.69,628.21,624.63,622.75,621.86,620.51,617.69,616.48,614.65,614.81,613.37,611.71,611.30,609.72,612.62,613.16,616.60,619.43,623.65,631.80,638.32,643.73,645.88,647.51,649.17,650.00,650.73,650.69,650.25,649.95,646.77,642.05,636.03,629.74,623.99,618.47,613.72,610.05,608.08,607.11,605.94,605.48,603.47,602.64,603.88,604.12,0.00,0.00,0.00,0.00,600.85,600.60,601.13,602.08,600.12,597.18,595.49,593.94,591.35,588.04,584.74,582.56,577.91,576.37,572.63,569.89,566.10,565.65,563.93,561.80,557.80,554.77,551.35,548.46,545.66,544.45,0.00,0.00,0.00,0.00,0.00,0.00,552.34,557.78,560.05,560.25,0.00,0.00,554.40,0.00,545.88,0.00,545.57,543.91,542.27,0.00,0.00,0.00,0.00,0.00,544.26,544.39,544.17,544.12,0.00,0.00,0.00,0.00,543.27,543.89,543.46,541.96,541.19,541.26,540.71,540.83,540.91,540.70,540.00,539.58,541.71,543.14,542.41,539.85,535.73,535.56,533.46,533.12,532.23,532.20,532.10,530.41,526.66,519.96,509.88,0.00,0.00,0.00,0.00,0.00,0.00,0.00,0.00,0.00,0.00,0.00,0.00,0.00,0.00,0.00,0.00,0.00,0.00,0.00,0.00,0.00,0.00,0.00,0.00,0.00,0.00,0.00,0.00,0.00,0.00,0.00,0.00,0.00,0.00,0.00,0.00,0.00,0.00,0.00,0.00,0.00,0.00,0.00,0.00,0.00,0.00
0.00,0.00,0.00,0.00,0.00,0.00,0.00,0.00,0.00,0.00,0.00,0.00,0.00,0.00,0.00,0.00,0.00,0.00,0.00,0.00,0.00,0.00,0.00,0.00,0.00,0.00,0.00,0.00,0.00,0.00,0.00,0.00,0.00,0.00,0.00,0.00,0.00,0.00,0.00,0.00,0.00,0.00,0.00,0.00,0.00,0.00,0.00,0.00,0.00,0.00,0.00,0.00,0.00,0.00,0.00,0.00,0.00,0.00,0.00,0.00,0.00,0.00,1554.59,1553.33,1566.34,1594.82,1615.52,1618.72,1620.48,1619.54,1621.20,1618.67,1619.20,1617.45,1619.12,1618.89,1617.42,1616.88,1617.66,1620.09,1621.83,1621.63,1620.93,1619.39,1618.67,1618.22,1619.49,1621.70,1623.09,1624.42,1624.33,1624.69,1622.46,1624.52,1624.57,1628.13,1628.12,1628.77,1628.84,1628.32,1629.55,1627.71,1628.74,1627.21,1628.55,1628.47,1626.08,1621.70,1618.91,1620.43,1621.57,1622.90,1623.78,1628.35,0.00,0.00,0.00,1302.42,1304.21,1323.57,1335.31,1313.15,1326.84,0.00,0.00,0.00,1618.61,1628.81,1630.85,1630.49,1629.49,1630.43,1631.47,0.00,0.00,0.00,0.00,0.00,0.00,0.00,0.00,0.00,0.00,0.00,0.00,0.00,0.00,0.00,0.00,0.00,0.00,0.00,0.00,0.00,0.00,0.00,0.00,0.00,0.00,0.00,0.00,0.00,0.00,0.00,0.00,0.00,0.00,630.26,670.12,687.04,692.46,694.41,694.99,694.12,693.25,694.40,694.55,695.91,694.97,696.78,697.56,698.81,700.11,699.35,699.90,699.33,701.28,700.03,701.76,702.33,701.43,700.14,699.38,700.64,700.95,700.15,700.05,698.16,699.95,700.72,701.92,700.70,701.95,702.15,703.65,702.53,703.01,702.99,703.39,703.29,702.63,702.12,702.49,701.14,700.41,699.81,702.21,702.83,702.78,700.74,699.86,697.88,696.56,695.72,695.88,693.04,689.98,685.28,682.88,682.10,680.48,679.20,673.81,671.83,671.03,669.79,667.47,662.93,661.30,656.74,650.90,645.45,643.01,641.23,638.55,634.57,630.78,627.75,625.05,621.52,619.62,618.54,617.77,613.23,609.74,607.13,605.70,603.05,600.51,599.83,598.40,597.73,594.74,592.37,590.52,589.71,589.34,586.40,585.81,581.44,581.08,577.91,580.24,578.59,579.05,577.83,579.95,578.99,578.35,575.76,577.44,578.48,581.06,582.57,587.24,593.00,602.71,612.92,621.54,626.52,631.55,635.46,639.57,639.39,639.81,638.69,639.34,638.58,638.13,636.68,636.60,637.51,637.31,636.67,635.16,634.67,634.49,634.34,636.29,635.97,635.26,633.10,630.99,628.20,625.37,623.14,621.03,618.76,618.21,617.51,615.53,613.86,611.79,611.08,609.13,607.23,0.00,605.03,606.66,606.84,611.57,614.09,616.93,621.25,625.62,630.80,634.66,636.86,639.22,639.88,641.03,641.04,641.23,640.11,636.13,628.86,621.97,615.00,611.69,608.98,608.47,605.72,604.73,603.00,603.78,603.82,0.00,0.00,602.01,600.92,0.00,0.00,600.84,600.29,599.48,598.07,597.93,598.00,598.20,595.49,594.46,591.42,589.87,586.24,584.93,581.81,578.84,575.21,570.98,0.00,566.31,567.39,566.01,563.32,557.12,551.88,548.76,546.30,543.74,0.00,0.00,540.78,0.00,542.80,0.00,549.24,554.60,560.07,561.95,562.99,562.36,559.17,555.22,0.00,0.00,0.00,0.00,0.00,0.00,0.00,0.00,0.00,0.00,0.00,0.00,542.88,0.00,545.05,0.00,0.00,0.00,0.00,541.81,542.74,542.81,540.36,540.04,539.85,540.23,539.87,539.40,538.67,538.70,539.36,541.30,541.05,539.71,536.35,532.89,531.88,531.06,531.42,532.46,532.96,532.53,529.98,525.07,517.86,507.39,0.00,0.00,0.00,0.00,0.00,0.00,0.00,0.00,0.00,0.00,0.00,0.00,0.00,0.00,0.00,0.00,0.00,0.00,0.00,0.00,0.00,0.00,0.00,0.00,0.00,0.00,0.00,0.00,0.00,0.00,0.00,0.00,0.00,0.00,0.00,0.00,0.00,0.00,0.00,0.00,0.00,0.00,0.00,0.00,0.00,0.00
0.00,0.00,0.00,0.00,0.00,0.00,0.00,0.00,0.00,0.00,0.00,0.00,0.00,0.00,0.00,0.00,0.00,0.00,0.00,0.00,0.00,0.00,0.00,0.00,0.00,0.00,0.00,0.00,0.00,0.00,0.00,0.00,0.00,0.00,0.00,0.00,0.00,0.00,0.00,0.00,0.00,0.00,0.00,0.00,0.00,0.00,0.00,0.00,0.00,0.00,0.00,0.00,0.00,0.00,0.00,0.00,0.00,0.00,0.00,0.00,0.00,0.00,1568.40,1586.04,1593.96,1605.54,1611.58,1618.54,1622.70,1622.61,1622.72,1620.87,1620.79,1619.96,1619.51,1619.50,1617.73,1617.85,1617.98,1619.42,1620.53,1620.91,1619.97,1618.81,1617.75,1618.50,1619.71,1621.53,1622.53,1623.36,1623.59,1624.81,1623.00,1624.03,1623.00,1626.60,1627.50,1628.74,1628.15,1627.54,1628.55,1628.45,1629.84,1629.27,1630.53,1630.21,1626.92,1622.16,1619.94,1621.42,1621.94,1622.62,1622.64,1625.63,0.00,0.00,0.00,1312.61,1308.88,1323.82,1331.77,1310.29,1348.31,0.00,1389.43,0.00,1617.93,1629.71,1632.62,1633.89,1633.80,1633.92,1633.87,1633.66,1631.77,0.00,0.00,0.00,0.00,0.00,0.00,0.00,0.00,0.00,0.00,0.00,0.00,0.00,0.00,0.00,0.00,0.00,0.00,0.00,0.00,0.00,0.00,0.00,0.00,0.00,0.00,0.00,0.00,0.00,0.00,0.00,0.00,0.00,659.64,680.47,690.14,692.85,693.62,693.30,693.62,695.26,696.19,696.96,695.75,696.09,696.63,698.47,699.75,698.72,698.12,698.21,699.63,699.84,701.58,703.39,703.27,703.23,701.56,702.87,701.96,701.83,701.11,700.20,701.74,703.31,704.53,703.73,703.63,703.43,704.36,703.15,703.39,704.00,705.82,706.62,705.16,703.80,703.11,702.61,702.68,702.43,703.30,702.63,702.68,702.02,700.70,698.96,697.73,696.98,696.12,693.08,690.50,687.16,684.21,683.45,680.71,678.39,673.26,671.30,670.30,668.92,667.75,665.03,661.33,655.22,649.03,645.59,643.07,642.75,639.53,636.80,631.77,630.31,626.38,623.17,620.26,619.64,617.41,614.39,610.93,608.84,605.38,602.89,601.33,600.14,597.90,596.82,594.20,592.79,591.14,591.37,590.63,587.90,587.30,583.68,583.30,579.84,580.89,578.69,579.26,578.42,579.82,578.27,577.27,575.13,574.89,575.47,576.71,577.50,578.50,581.47,585.33,591.40,596.81,604.42,610.12,618.69,626.63,633.12,635.99,637.13,638.50,638.44,637.21,636.21,636.11,637.42,637.13,636.03,634.19,634.09,634.25,635.27,635.93,635.37,634.89,632.87,632.60,629.06,627.12,623.90,622.86,620.49,619.40,617.64,616.35,614.66,613.31,612.92,610.73,610.65,609.39,607.61,605.97,605.86,608.81,611.44,612.14,613.67,614.03,617.27,618.15,619.61,621.43,624.16,625.77,628.35,629.84,630.23,625.04,618.55,612.28,608.12,606.75,606.38,607.49,606.96,606.25,604.09,604.47,604.93,0.00,603.74,0.00,601.43,599.72,600.67,599.79,599.21,596.35,596.46,594.56,596.24,597.40,598.16,597.68,594.42,591.55,587.47,585.44,582.66,579.20,575.88,573.38,573.16,571.63,570.88,566.72,562.66,555.13,549.86,0.00,0.00,0.00,0.00,539.92,540.72,0.00,543.85,546.54,553.46,558.77,562.55,0.00,0.00,564.13,562.89,559.93,557.95,557.18,0.00,554.19,550.69,549.02,0.00,0.00,0.00,0.00,0.00,0.00,544.91,0.00,0.00,0.00,0.00,543.58,543.51,544.80,544.71,544.28,543.07,543.59,543.70,542.51,542.16,541.49,541.48,539.96,540.58,542.33,542.95,540.87,537.89,535.01,533.66,533.04,533.51,534.95,535.21,533.77,530.81,524.56,518.27,506.30,0.00,0.00,0.00,0.00,0.00,0.00,0.00,0.00,0.00,0.00,0.00,0.00,0.00,0.00,0.00,0.00,0.00,0.00,0.00,0.00,0.00,0.00,0.00,0.00,0.00,0.00,0.00,0.00,0.00,0.00,0.00,0.00,0.00,0.00,0.00,0.00,0.00,0.00,0.00,0.00,0.00,0.00,0.00,0.00,0.00,0.00
0.00,0.00,0.00,0.00,0.00,0.00,0.00,0.00,0.00,0.00,0.00,0.00,0.00,0.00,0.00,0.00,0.00,0.00,0.00,0.00,0.00,0.00,0.00,0.00,0.00,0.00,0.00,0.00,0.00,0.00,0.00,0.00,0.00,0.00,0.00,0.00,0.00,0.00,0.00,0.00,0.00,0.00,0.00,0.00,0.00,0.00,0.00,0.00,0.00,0.00,0.00,0.00,0.00,0.00,0.00,0.00,0.00,0.00,0.00,0.00,0.00,0.00,0.00,0.00,0.00,1584.66,1601.02,1611.38,1617.81,1619.04,1620.22,1618.54,1618.48,1616.67,1616.26,1616.39,1616.61,1616.29,1615.49,1615.13,1616.25,1616.99,1616.84,1616.26,1617.14,1618.58,1619.68,1619.60,1620.10,1621.27,1621.76,1623.18,1622.41,1622.98,1622.60,1623.96,1625.32,1624.85,1625.64,1624.94,1626.22,1626.01,1627.28,1627.44,1628.63,1627.83,1624.15,1619.14,1617.68,1617.91,1619.08,1620.07,1621.16,1620.37,0.00,0.00,0.00,1321.04,1305.71,1312.75,1326.64,1308.13,1342.83,0.00,1352.74,0.00,1608.51,1622.01,1626.51,1629.14,1630.59,1630.18,1629.45,1628.74,1627.40,0.00,0.00,0.00,0.00,0.00,0.00,0.00,0.00,0.00,0.00,0.00,0.00,0.00,0.00,0.00,0.00,0.00,0.00,0.00,0.00,0.00,0.00,0.00,0.00,0.00,0.00,0.00,0.00,0.00,0.00,0.00,0.00,0.00,634.29,664.90,683.00,687.01,689.27,690.04,690.53,691.44,692.09,692.84,692.69,693.71,696.07,698.11,698.40,696.11,694.70,695.13,696.44,696.36,696.81,698.13,699.40,700.55,700.11,700.75,700.06,699.06,698.34,696.11,698.61,698.92,701.35,699.26,701.12,701.13,703.06,701.77,702.35,702.35,703.92,704.42,703.56,702.42,701.63,701.13,700.48,699.91,701.22,701.44,701.95,699.60,697.54,695.24,694.13,694.32,694.74,693.45,690.30,687.05,684.04,683.69,680.74,677.78,672.89,670.28,668.99,666.93,665.97,663.36,658.74,653.23,647.31,644.45,641.12,640.21,637.29,634.70,631.67,629.07,625.95,621.54,617.43,615.97,614.57,612.94,609.33,606.68,604.81,601.74,598.69,596.23,594.80,594.13,591.32,590.06,588.82,588.73,587.09,583.78,583.56,581.86,582.22,579.32,578.41,575.75,575.34,574.45,574.82,573.73,572.78,570.50,569.56,569.06,570.96,571.38,571.49,571.98,572.75,574.60,576.00,578.08,581.89,588.10,597.30,607.16,615.37,622.91,627.96,632.11,632.61,632.85,632.87,632.49,631.87,630.58,631.12,631.63,632.68,632.04,631.24,629.98,629.92,629.52,629.99,626.59,624.13,620.98,621.09,619.54,618.36,615.84,614.68,612.09,611.37,611.11,610.02,609.13,606.20,603.83,602.14,602.12,603.10,603.32,602.54,602.97,602.48,603.43,602.55,603.32,605.00,608.10,611.08,613.42,614.49,614.20,611.68,607.44,604.04,600.72,599.48,597.72,600.28,602.03,603.59,601.55,600.75,600.45,601.07,601.13,598.85,597.02,595.50,596.09,595.16,0.00,592.51,593.54,592.25,592.95,594.00,595.56,594.54,590.02,588.84,586.45,585.18,580.61,577.61,574.46,574.47,574.07,571.05,567.07,559.97,554.52,0.00,0.00,0.00,541.21,0.00,0.00,0.00,0.00,0.00,543.72,0.00,554.78,558.93,559.38,0.00,0.00,0.00,0.00,562.52,561.35,561.87,0.00,558.58,554.22,0.00,548.88,0.00,0.00,0.00,0.00,0.00,0.00,0.00,0.00,0.00,0.00,543.97,543.65,544.48,543.36,541.44,540.08,540.36,540.89,539.40,539.84,540.22,541.06,540.07,540.45,541.14,540.15,538.28,533.85,532.37,529.65,531.18,530.96,532.72,532.82,532.17,528.85,522.73,514.93,502.19,0.00,0.00,0.00,0.00,0.00,0.00,0.00,0.00,0.00,0.00,0.00,0.00,0.00,0.00,0.00,0.00,0.00,0.00,0.00,0.00,0.00,0.00,0.00,0.00,0.00,0.00,0.00,0.00,0.00,0.00,0.00,0.00,0.00,0.00,0.00,0.00,0.00,0.00,0.00,0.00,0.00,0.00,0.00,0.00,0.00,0.00
0.00,0.00,0.00,0.00,0.00,0.00,0.00,0.00,0.00,0.00,0.00,0.00,0.00,0.00,0.00,0.00,0.00,0.00,0.00,0.00,0.00,0.00,0.00,0.00,0.00,0.00,0.00,0.00,0.00,0.00,0.00,0.00,0.00,0.00,0.00,0.00,0.00,0.00,0.00,0.00,0.00,0.00,0.00,0.00,0.00,0.00,0.00,0.00,0.00,0.00,0.00,0.00,0.00,0.00,0.00,0.00,0.00,0.00,0.00,0.00,0.00,0.00,0.00,0.00,0.00,0.00,0.00,1606.37,1614.68,1619.19,1619.72,1620.09,1619.57,1618.74,1616.49,1615.16,1614.87,1614.97,1615.06,1615.15,1615.50,1616.20,1616.03,1616.96,1618.08,1619.60,1620.76,1621.14,1621.07,1621.26,1620.17,1621.33,1622.27,1623.11,1623.04,1623.27,1624.60,1624.37,1624.79,1624.81,1625.04,1625.99,1627.88,1628.37,1629.16,1627.10,1624.18,1618.45,1617.33,1618.12,1619.66,1620.75,1621.53,1623.22,0.00,0.00,0.00,0.00,1304.57,1313.54,1334.46,1327.94,1339.12,1367.94,1349.15,1340.06,1599.46,1619.46,1626.96,1629.89,1632.54,1631.22,1630.70,1629.53,1628.14,0.00,0.00,0.00,0.00,0.00,0.00,0.00,0.00,0.00,0.00,0.00,0.00,0.00,0.00,0.00,0.00,0.00,0.00,0.00,0.00,0.00,0.00,0.00,0.00,0.00,0.00,0.00,0.00,0.00,0.00,0.00,0.00,0.00,0.00,652.08,675.44,684.35,689.02,689.80,691.28,692.03,692.73,692.64,693.42,696.13,698.59,699.47,697.45,694.80,694.02,696.49,697.70,697.66,696.29,697.58,697.97,699.32,698.89,701.40,701.86,702.20,699.94,698.56,699.51,700.05,701.26,700.31,702.01,703.10,704.83,704.08,704.43,704.34,705.90,706.41,706.38,705.58,704.15,703.55,702.59,702.43,703.46,704.26,703.64,701.53,698.37,697.36,695.40,696.21,695.37,693.58,689.99,687.16,684.77,683.45,681.20,679.97,677.03,673.76,669.24,665.06,662.93,661.02,656.77,653.53,650.17,648.15,642.07,638.16,634.78,633.97,632.37,630.09,627.67,624.21,619.50,616.11,613.52,613.60,611.36,609.54,607.08,603.86,600.61,597.97,597.18,595.01,592.62,591.84,591.53,590.84,588.34,585.54,582.93,581.52,581.19,579.94,578.62,575.80,575.40,574.56,575.16,574.04,0.00,571.07,569.99,0.00,0.00,0.00,0.00,569.27,568.79,569.50,568.70,568.31,570.08,573.82,578.72,585.35,590.79,599.42,607.12,617.86,623.69,630.58,633.83,634.98,632.70,631.06,632.14,633.76,634.82,633.40,631.85,630.19,630.03,629.38,630.39,628.35,626.37,623.58,622.10,620.93,618.54,616.38,615.38,613.33,612.77,612.18,0.00,609.78,605.36,603.15,0.00,0.00,601.25,598.97,598.48,600.31,600.19,600.31,598.58,598.78,600.52,602.59,604.17,604.57,605.91,606.43,604.61,602.18,600.26,599.16,597.75,596.89,598.32,599.60,600.57,599.19,598.99,599.04,0.00,599.64,598.60,598.03,597.21,596.42,596.16,0.00,593.65,593.62,592.71,592.96,594.09,596.58,595.20,591.76,589.88,586.92,584.35,580.48,578.79,577.08,576.87,575.35,569.65,564.56,557.31,553.16,0.00,545.30,544.52,543.03,0.00,0.00,0.00,0.00,0.00,549.16,556.62,562.47,563.55,562.30,0.00,0.00,0.00,0.00,0.00,0.00,569.19,566.83,562.95,559.23,555.26,553.12,550.32,550.35,549.27,0.00,0.00,543.17,543.57,0.00,546.43,0.00,545.03,545.53,545.55,545.29,541.56,541.24,541.27,542.67,540.07,540.14,540.46,542.65,541.97,542.55,542.57,543.01,540.76,537.75,534.70,532.78,533.05,532.97,534.85,534.84,533.58,528.36,522.44,514.13,501.03,0.00,0.00,0.00,0.00,0.00,0.00,0.00,0.00,0.00,0.00,0.00,0.00,0.00,0.00,0.00,0.00,0.00,0.00,0.00,0.00,0.00,0.00,0.00,0.00,0.00,0.00,0.00,0.00,0.00,0.00,0.00,0.00,0.00,0.00,0.00,0.00,0.00,0.00,0.00,0.00,0.00,0.00,0.00,0.00,0.00,0.00
0.00,0.00,0.00,0.00,0.00,0.00,0.00,0.00,0.00,0.00,0.00,0.00,0.00,0.00,0.00,0.00,0.00,0.00,0.00,0.00,0.00,0.00,0.00,0.00,0.00,0.00,0.00,0.00,0.00,0.00,0.00,0.00,0.00,0.00,0.00,0.00,0.00,0.00,0.00,0.00,0.00,0.00,0.00,0.00,0.00,0.00,0.00,0.00,0.00,0.00,0.00,0.00,0.00,0.00,0.00,0.00,0.00,0.00,0.00,0.00,0.00,0.00,0.00,0.00,0.00,0.00,0.00,1597.70,1610.06,1616.41,1618.89,1616.67,1616.00,1614.72,1614.29,1613.08,1612.87,1613.57,1614.20,1614.31,1614.48,1613.96,1615.47,1615.94,1617.25,1616.74,1617.50,1617.68,1618.72,1618.46,1617.77,1617.92,1620.36,1621.89,1621.85,1620.86,1620.82,1621.03,1622.78,1623.79,1624.60,1624.22,1625.73,1625.37,1627.19,1625.36,1622.68,1616.53,1616.04,1616.64,1618.32,1618.56,1620.32,1622.24,0.00,0.00,0.00,0.00,1301.04,1311.68,0.00,1332.53,1334.31,0.00,0.00,1312.17,0.00,1614.35,1623.74,1628.36,1630.93,1630.58,1630.15,1628.80,0.00,0.00,0.00,0.00,0.00,0.00,0.00,0.00,0.00,0.00,0.00,0.00,0.00,0.00,0.00,0.00,0.00,0.00,0.00,0.00,0.00,0.00,0.00,0.00,0.00,0.00,0.00,0.00,0.00,0.00,0.00,0.00,0.00,0.00,0.00,631.18,664.25,680.77,687.21,687.95,688.89,687.90,689.87,689.23,692.06,694.48,697.37,696.84,695.55,693.41,693.20,693.69,694.85,693.79,693.16,693.63,695.33,696.19,696.05,696.92,698.27,698.50,697.61,696.29,697.99,696.98,698.58,697.43,700.23,700.44,702.50,701.15,701.29,701.74,703.73,704.66,704.18,703.30,703.24,702.69,701.39,699.07,698.79,700.05,699.38,698.31,696.13,695.93,693.68,692.70,692.09,691.16,688.92,685.23,682.44,680.98,680.18,678.51,675.26,670.71,667.03,663.46,661.08,656.96,653.87,650.58,650.46,646.89,641.62,636.25,633.89,633.90,632.53,628.32,624.95,621.76,619.25,616.28,614.20,613.18,611.65,608.32,605.92,603.16,601.10,598.28,595.66,592.65,590.63,590.10,589.73,587.12,584.58,582.12,579.86,578.03,577.97,577.01,575.52,572.42,0.00,573.75,0.00,0.00,0.00,0.00,567.71,0.00,0.00,0.00,0.00,565.73,0.00,0.00,0.00,563.82,565.79,567.29,569.28,572.11,574.50,577.82,582.53,590.60,599.28,610.57,620.72,625.58,626.40,625.36,628.00,628.61,630.60,629.48,628.95,627.07,626.19,625.75,626.59,625.96,624.46,622.70,619.97,617.81,614.90,613.94,613.52,611.45,610.08,0.00,0.00,0.00,0.00,0.00,0.00,0.00,0.00,0.00,0.00,595.83,596.37,595.81,595.29,595.13,596.65,597.55,597.45,596.01,597.14,598.30,597.20,594.75,594.49,594.18,593.08,590.88,591.30,591.89,594.03,593.62,593.41,592.70,0.00,595.74,595.53,594.60,593.59,591.22,591.50,590.89,592.76,591.87,592.30,591.42,592.19,593.31,592.25,588.33,586.87,582.48,0.00,577.39,579.12,577.44,574.88,569.01,564.30,561.38,555.73,549.87,0.00,543.96,0.00,542.15,0.00,0.00,0.00,0.00,543.52,551.85,562.30,565.22,564.29,562.84,0.00,0.00,0.00,0.00,0.00,0.00,567.70,0.00,0.00,561.60,558.25,0.00,0.00,0.00,0.00,0.00,0.00,0.00,0.00,0.00,545.64,545.06,543.15,542.83,541.76,542.60,539.97,539.69,539.37,540.72,539.45,539.98,539.82,541.91,542.28,543.25,540.77,539.64,536.50,534.84,532.52,532.13,532.95,530.79,532.96,532.61,532.41,526.21,519.91,508.68,0.00,0.00,0.00,0.00,0.00,0.00,0.00,0.00,0.00,0.00,0.00,0.00,0.00,0.00,0.00,0.00,0.00,0.00,0.00,0.00,0.00,0.00,0.00,0.00,0.00,0.00,0.00,0.00,0.00,0.00,0.00,0.00,0.00,0.00,0.00,0.00,0.00,0.00,0.00,0.00,0.00,0.00,0.00,0.00,0.00,0.00,0.00
0.00,0.00,0.00,0.00,0.00,0.00,0.00,0.00,0.00,0.00,0.00,0.00,0.00,0.00,0.00,0.00,0.00,0.00,0.00,0.00,0.00,0.00,0.00,0.00,0.00,0.00,0.00,0.00,0.00,0.00,0.00,0.00,0.00,0.00,0.00,0.00,0.00,0.00,0.00,0.00,0.00,0.00,0.00,0.00,0.00,0.00,0.00,0.00,0.00,0.00,0.00,0.00,0.00,0.00,0.00,0.00,0.00,0.00,0.00,0.00,0.00,0.00,0.00,0.00,0.00,0.00,0.00,1594.58,1607.56,1617.52,1618.86,1616.82,1615.44,1616.37,1614.33,1613.33,1611.00,1613.89,1614.78,1615.69,1614.98,1615.23,1616.78,1616.58,1616.63,1616.34,1617.28,1618.07,1617.96,1618.62,1618.10,1618.88,1620.02,1621.45,1621.49,1621.79,1621.99,1622.59,1623.86,1624.32,1625.40,1624.90,1625.96,1625.02,1627.73,1627.12,1624.61,1618.09,1617.74,1619.11,1620.11,1619.42,1620.69,1624.14,0.00,0.00,0.00,0.00,1298.58,1309.89,1346.62,0.00,1329.43,1361.37,0.00,1323.08,0.00,1609.76,1623.74,1629.06,1630.43,1630.12,1630.21,1629.59,1628.03,0.00,0.00,0.00,0.00,0.00,0.00,0.00,0.00,0.00,0.00,0.00,0.00,0.00,0.00,0.00,0.00,0.00,0.00,0.00,0.00,0.00,0.00,0.00,0.00,0.00,0.00,0.00,0.00,0.00,0.00,0.00,0.00,0.00,0.00,0.00,652.85,675.52,686.52,686.74,688.21,686.85,689.64,690.51,693.21,695.63,696.15,696.41,695.15,694.17,693.84,694.42,695.33,694.77,695.24,695.55,696.28,696.98,696.58,697.47,698.16,700.59,701.00,701.12,700.48,699.82,700.09,701.44,702.59,703.52,703.50,703.29,702.61,703.85,703.96,705.34,704.59,704.96,704.17,704.03,703.21,701.50,700.00,700.75,699.76,700.20,698.42,698.73,696.04,692.55,690.73,690.19,690.20,686.91,683.31,681.11,679.94,677.04,674.30,669.21,666.13,662.78,661.18,657.18,653.19,649.66,650.52,648.03,643.97,638.10,635.45,634.63,632.89,629.45,625.61,623.73,622.51,620.45,617.04,615.22,613.38,608.99,605.41,603.09,602.72,600.70,597.28,594.64,593.50,592.36,589.49,585.61,584.91,584.36,581.51,579.14,577.30,577.67,575.78,574.97,576.71,578.38,0.00,0.00,574.44,572.50,571.91,571.23,568.01,566.76,567.24,0.00,567.33,566.40,565.79,566.11,567.45,569.00,568.66,570.07,569.81,570.68,571.82,0.00,583.14,592.18,602.31,612.15,618.63,623.26,626.66,627.85,629.11,0.00,0.00,0.00,628.24,0.00,627.91,0.00,627.37,625.92,622.80,620.19,616.86,615.51,614.34,612.76,610.95,609.49,0.00,604.77,603.07,0.00,602.70,600.17,597.30,594.67,0.00,0.00,596.84,596.41,595.55,595.32,596.08,596.76,594.74,592.57,593.17,595.03,593.63,592.33,592.43,594.75,594.93,594.95,593.40,592.39,592.67,592.48,0.00,593.40,0.00,594.23,0.00,593.41,592.70,591.07,591.42,0.00,0.00,0.00,0.00,591.04,592.16,592.40,592.25,0.00,586.87,0.00,580.16,579.81,582.95,581.25,573.63,566.82,563.43,562.18,557.01,551.53,547.85,546.33,0.00,0.00,0.00,0.00,0.00,542.59,546.80,558.25,568.73,569.72,568.57,0.00,0.00,0.00,0.00,0.00,0.00,0.00,0.00,569.32,568.82,565.26,561.51,0.00,0.00,0.00,0.00,0.00,0.00,0.00,0.00,0.00,0.00,547.42,545.00,545.23,543.33,544.88,543.15,544.50,544.74,544.56,542.84,542.96,543.42,544.57,543.39,544.07,541.08,541.12,537.07,537.45,534.97,535.85,534.91,534.05,535.39,534.49,532.63,526.29,519.38,509.33,0.00,0.00,0.00,0.00,0.00,0.00,0.00,0.00,0.00,0.00,0.00,0.00,0.00,0.00,0.00,0.00,0.00,0.00,0.00,0.00,0.00,0.00,0.00,0.00,0.00,0.00,0.00,0.00,0.00,0.00,0.00,0.00,0.00,0.00,0.00,0.00,0.00,0.00,0.00,0.00,0.00,0.00,0.00,0.00,0.00,0.00,0.00
0.00,0.00,0.00,0.00,0.00,0.00,0.00,0.00,0.00,0.00,0.00,0.00,0.00,0.00,0.00,0.00,0.00,0.00,0.00,0.00,0.00,0.00,0.00,0.00,0.00,0.00,0.00,0.00,0.00,0.00,0.00,0.00,0.00,0.00,0.00,0.00,0.00,0.00,0.00,0.00,0.00,0.00,0.00,0.00,0.00,0.00,0.00,0.00,0.00,0.00,0.00,0.00,0.00,0.00,0.00,0.00,0.00,0.00,0.00,0.00,0.00,0.00,0.00,0.00,0.00,0.00,0.00,1588.84,1603.17,1613.85,1616.68,1614.22,1613.35,1612.11,1610.22,1609.75,1608.63,1612.08,1612.69,1612.54,1611.30,1612.16,1614.32,1614.99,1614.75,1613.92,1614.50,1614.96,1615.70,1615.96,1617.24,1617.73,1618.72,1619.72,1620.74,1620.79,1620.66,1620.15,1621.57,1621.94,1623.49,1622.49,1622.86,1621.60,1624.14,1623.60,1620.87,1616.32,1616.95,1618.44,1618.65,1617.19,1618.60,1620.32,0.00,0.00,0.00,0.00,1297.17,1305.81,1339.78,0.00,1317.47,1341.52,0.00,1357.15,0.00,1600.11,1618.84,1625.36,1625.75,1626.29,1626.81,1627.42,0.00,0.00,0.00,0.00,0.00,0.00,0.00,0.00,0.00,0.00,0.00,0.00,0.00,0.00,0.00,0.00,0.00,0.00,0.00,0.00,0.00,0.00,0.00,0.00,0.00,0.00,0.00,0.00,0.00,0.00,0.00,0.00,0.00,0.00,0.00,0.00,0.00,666.34,681.22,684.15,685.59,684.77,686.43,687.52,689.08,690.14,690.57,691.86,692.17,691.61,691.96,692.11,692.77,690.98,692.37,691.92,694.58,694.26,695.04,694.03,695.34,696.86,698.79,699.30,699.13,698.24,697.14,698.28,700.60,701.11,0.00,700.35,701.20,700.63,700.09,700.55,701.27,702.22,703.03,702.20,701.53,698.10,697.25,697.45,698.40,697.94,697.30,696.02,693.60,688.90,687.94,688.66,689.94,686.38,682.00,679.66,678.43,674.42,671.76,666.93,665.37,661.68,658.92,654.18,651.08,647.49,646.83,644.76,641.90,637.99,635.78,634.49,631.79,626.97,623.24,620.51,620.29,619.42,617.99,615.32,612.50,606.50,603.32,600.67,599.69,597.89,595.15,593.93,593.50,591.39,587.74,583.50,583.66,582.59,579.96,0.00,0.00,0.00,574.37,573.64,574.32,574.51,0.00,572.78,570.92,570.25,568.77,567.76,565.42,563.81,564.82,563.79,564.24,563.71,563.53,563.58,564.30,565.68,565.39,565.74,566.45,566.21,566.32,568.52,573.89,579.22,584.66,591.51,601.04,610.43,617.39,621.11,622.30,622.82,622.94,623.21,0.00,624.39,626.29,625.48,624.47,621.58,619.30,617.07,615.60,614.12,612.00,0.00,608.16,0.00,0.00,0.00,0.00,0.00,602.36,601.10,0.00,596.92,0.00,0.00,592.69,0.00,591.57,0.00,590.43,590.60,589.87,587.83,588.43,589.92,589.42,0.00,589.80,591.50,591.74,590.37,589.88,589.08,589.76,588.94,588.95,0.00,0.00,0.00,0.00,0.00,0.00,0.00,0.00,0.00,0.00,0.00,0.00,0.00,0.00,588.79,587.91,585.04,0.00,0.00,580.44,582.32,583.01,579.01,570.73,565.25,562.29,559.36,553.46,0.00,544.92,0.00,0.00,0.00,0.00,0.00,0.00,540.42,546.61,559.28,568.26,568.90,0.00,570.29,0.00,571.17,0.00,0.00,0.00,0.00,0.00,0.00,569.32,565.47,0.00,0.00,0.00,0.00,0.00,0.00,0.00,0.00,0.00,547.30,545.93,545.16,544.29,544.27,543.84,544.65,544.01,544.53,544.35,542.90,542.05,543.04,544.58,545.03,542.91,542.83,539.72,538.94,535.83,535.76,534.76,535.22,534.85,533.58,533.98,533.43,531.89,526.88,519.13,511.26,0.00,0.00,0.00,0.00,0.00,0.00,0.00,0.00,0.00,0.00,0.00,0.00,0.00,0.00,0.00,0.00,0.00,0.00,0.00,0.00,0.00,0.00,0.00,0.00,0.00,0.00,0.00,0.00,0.00,0.00,0.00,0.00,0.00,0.00,0.00,0.00,0.00,0.00,0.00,0.00,0.00,0.00,0.00,0.00,0.00,0.00,0.00
0.00,0.00,0.00,0.00,0.00,0.00,0.00,0.00,0.00,0.00,0.00,0.00,0.00,0.00,0.00,0.00,0.00,0.00,0.00,0.00,0.00,0.00,0.00,0.00,0.00,0.00,0.00,0.00,0.00,0.00,0.00,0.00,0.00,0.00,0.00,0.00,0.00,0.00,0.00,0.00,0.00,0.00,0.00,0.00,0.00,0.00,0.00,0.00,0.00,0.00,0.00,0.00,0.00,0.00,0.00,0.00,0.00,0.00,0.00,0.00,0.00,0.00,0.00,0.00,0.00,0.00,0.00,1587.23,1599.85,1611.27,1613.56,1614.68,1614.36,1613.58,1610.41,1610.30,1609.04,1611.47,1611.06,1611.89,1610.70,1612.77,1612.66,1614.40,1613.89,1614.09,1614.20,1614.90,1615.47,1616.34,1617.18,1618.79,1618.86,1620.16,1621.09,1621.00,1620.90,1620.05,1621.83,1621.53,1622.37,1622.60,1623.93,1624.44,1625.37,1623.95,1619.97,1616.59,1616.34,1617.46,1617.53,1617.95,1618.99,1620.31,1624.61,0.00,0.00,0.00,1310.06,1312.76,1332.78,0.00,1317.40,1339.83,0.00,0.00,1356.70,0.00,1615.46,1624.11,1625.93,1626.32,1625.71,0.00,0.00,0.00,0.00,0.00,0.00,0.00,0.00,0.00,0.00,0.00,0.00,0.00,0.00,0.00,0.00,0.00,0.00,0.00,0.00,0.00,0.00,0.00,0.00,0.00,0.00,0.00,0.00,0.00,0.00,0.00,0.00,0.00,0.00,0.00,0.00,0.00,0.00,653.23,673.34,682.98,684.92,685.67,685.85,688.62,689.83,691.65,691.02,692.76,692.10,690.88,689.97,691.60,693.08,693.04,693.42,693.70,695.31,695.11,696.16,696.68,698.57,698.97,698.66,699.94,699.80,701.11,698.73,700.57,701.87,703.55,703.57,703.46,704.16,703.03,701.25,701.67,702.86,704.49,704.33,702.57,701.58,699.36,700.16,700.65,700.87,698.93,696.84,695.60,693.84,690.85,690.09,690.29,690.79,686.94,682.64,679.84,678.84,676.23,673.94,670.74,667.92,663.47,659.02,655.80,652.73,650.54,646.66,644.68,639.82,637.77,635.49,633.75,631.18,627.18,625.09,621.43,620.84,620.07,619.49,617.45,614.74,609.30,606.17,602.52,600.65,598.91,597.91,597.91,597.42,595.08,591.74,588.39,587.80,585.59,582.82,580.51,0.00,579.53,576.66,575.96,574.72,573.45,572.31,572.68,573.05,573.13,570.62,568.35,565.85,564.70,565.72,564.73,564.48,563.22,563.13,563.06,563.63,564.42,564.76,565.01,564.93,566.04,567.58,569.90,572.76,574.86,576.81,581.39,588.23,597.97,606.68,615.66,618.66,620.74,621.90,624.63,625.73,624.53,624.95,0.00,624.22,621.67,620.30,619.77,619.71,617.42,614.75,611.75,610.78,0.00,0.00,0.00,0.00,0.00,0.00,0.00,0.00,0.00,0.00,595.45,593.57,0.00,592.72,0.00,0.00,591.58,0.00,589.68,589.72,0.00,0.00,590.10,0.00,591.59,591.08,590.66,591.30,0.00,590.34,589.90,591.51,0.00,0.00,0.00,0.00,0.00,0.00,0.00,0.00,0.00,0.00,0.00,0.00,0.00,0.00,589.26,587.38,584.93,0.00,584.11,585.38,587.14,583.48,579.92,572.08,567.97,563.02,558.78,552.64,547.93,545.28,0.00,0.00,0.00,0.00,0.00,0.00,541.81,549.17,561.86,570.09,572.03,0.00,0.00,572.73,573.69,0.00,573.77,0.00,0.00,0.00,0.00,572.48,570.04,565.16,561.95,0.00,0.00,0.00,554.07,550.06,0.00,0.00,549.66,548.89,548.30,548.38,548.64,548.29,549.00,548.16,548.17,547.49,544.59,544.05,545.47,548.40,547.89,545.80,544.83,543.06,541.55,540.56,540.24,539.11,537.50,536.43,535.95,535.88,534.96,531.97,527.29,521.54,515.81,505.57,0.00,0.00,0.00,0.00,0.00,0.00,0.00,0.00,0.00,0.00,0.00,0.00,0.00,0.00,0.00,0.00,0.00,0.00,0.00,0.00,0.00,0.00,0.00,0.00,0.00,0.00,0.00,0.00,0.00,0.00,0.00,0.00,0.00,0.00,0.00,0.00,0.00,0.00,0.00,0.00,0.00,0.00,0.00,0.00,0.00,0.00
0.00,0.00,0.00,0.00,0.00,0.00,0.00,0.00,0.00,0.00,0.00,0.00,0.00,0.00,0.00,0.00,0.00,0.00,0.00,0.00,0.00,0.00,0.00,0.00,0.00,0.00,0.00,0.00,0.00,0.00,0.00,0.00,0.00,0.00,0.00,0.00,0.00,0.00,0.00,0.00,0.00,0.00,0.00,0.00,0.00,0.00,0.00,0.00,0.00,0.00,0.00,0.00,0.00,0.00,0.00,0.00,0.00,0.00,0.00,0.00,0.00,0.00,0.00,0.00,0.00,0.00,0.00,1585.93,1597.71,1608.28,1612.54,1613.27,1612.26,1609.66,1607.92,1608.55,1608.57,1609.84,1609.87,1609.96,1609.37,1609.91,1609.76,1611.20,1611.51,1611.86,1612.40,1611.94,1614.08,1613.67,1616.18,1615.50,1616.94,1617.23,1619.03,1617.87,1617.46,1616.94,1618.85,1619.44,1619.67,1620.20,1621.50,1622.76,1622.93,1620.08,1615.48,1614.01,1613.87,1615.39,1615.99,1617.27,1617.46,1615.67,1615.56,0.00,0.00,0.00,1321.11,1314.62,1321.17,0.00,1320.44,1338.43,0.00,0.00,1346.48,0.00,1604.27,1618.83,0.00,0.00,0.00,0.00,0.00,0.00,0.00,0.00,0.00,0.00,0.00,0.00,0.00,0.00,0.00,0.00,0.00,0.00,0.00,0.00,0.00,0.00,0.00,0.00,0.00,0.00,0.00,0.00,0.00,0.00,0.00,0.00,0.00,0.00,0.00,0.00,0.00,0.00,0.00,0.00,0.00,622.80,660.78,676.84,681.98,684.66,684.99,685.57,686.55,687.56,688.37,688.77,689.00,688.29,688.22,688.33,689.67,689.91,691.09,691.83,692.93,691.91,692.74,693.23,695.40,694.66,694.28,695.40,696.97,697.92,696.57,696.82,698.33,699.29,701.02,700.39,700.97,699.73,699.22,699.04,700.32,701.82,702.73,700.49,699.32,696.51,697.01,697.56,698.85,697.80,695.57,693.33,691.91,690.45,690.73,690.05,688.69,685.50,682.11,678.86,676.55,674.32,673.09,671.27,668.42,664.12,659.54,655.34,651.87,648.69,644.42,641.30,636.00,635.09,633.84,632.33,629.06,625.09,624.27,620.48,620.00,617.76,617.87,615.38,613.61,607.75,605.83,603.08,601.59,597.07,595.87,595.78,597.29,595.23,593.95,590.80,588.53,585.09,581.47,579.31,578.16,577.84,576.50,574.48,572.56,569.35,566.75,566.66,566.74,568.73,567.59,566.47,0.00,562.23,562.60,562.09,561.53,0.00,558.50,0.00,559.52,561.20,561.43,561.51,560.32,560.00,561.47,563.31,564.76,564.93,565.82,567.52,570.95,576.80,586.72,600.24,608.06,613.35,616.87,621.03,622.03,619.97,619.67,618.66,617.74,0.00,615.57,616.06,616.80,613.66,0.00,609.41,610.36,0.00,0.00,0.00,0.00,0.00,0.00,0.00,0.00,0.00,0.00,0.00,592.45,0.00,0.00,0.00,0.00,0.00,0.00,0.00,0.00,0.00,0.00,0.00,0.00,0.00,0.00,0.00,0.00,0.00,0.00,586.34,587.30,0.00,0.00,0.00,0.00,0.00,0.00,0.00,0.00,0.00,0.00,0.00,0.00,0.00,0.00,0.00,0.00,0.00,0.00,0.00,585.77,584.87,579.74,576.67,570.49,565.21,559.18,554.66,0.00,0.00,0.00,0.00,0.00,0.00,0.00,0.00,0.00,0.00,546.02,557.85,566.36,570.20,0.00,0.00,0.00,0.00,0.00,0.00,576.86,0.00,0.00,0.00,0.00,570.48,568.56,0.00,564.14,562.41,558.29,0.00,0.00,0.00,0.00,548.82,548.65,547.21,547.59,546.86,546.50,546.62,546.01,545.53,545.40,544.05,544.73,546.80,548.44,547.57,546.00,544.08,542.07,539.46,539.72,538.36,538.30,537.04,537.67,536.22,535.61,533.02,530.24,524.66,521.79,516.87,508.18,502.48,0.00,0.00,0.00,0.00,0.00,0.00,0.00,0.00,0.00,0.00,0.00,0.00,0.00,0.00,0.00,0.00,0.00,0.00,0.00,0.00,0.00,0.00,0.00,0.00,0.00,0.00,0.00,0.00,0.00,0.00,0.00,0.00,0.00,0.00,0.00,0.00,0.00,0.00,0.00,0.00,0.00,0.00,0.00,0.00,0.00
0.00,0.00,0.00,0.00,0.00,0.00,0.00,0.00,0.00,0.00,0.00,0.00,0.00,0.00,0.00,0.00,0.00,0.00,0.00,0.00,0.00,0.00,0.00,0.00,0.00,0.00,0.00,0.00,0.00,0.00,0.00,0.00,0.00,0.00,0.00,0.00,0.00,0.00,0.00,0.00,0.00,0.00,0.00,0.00,0.00,0.00,0.00,0.00,0.00,0.00,0.00,0.00,0.00,0.00,0.00,0.00,0.00,0.00,0.00,0.00,0.00,0.00,0.00,0.00,0.00,0.00,0.00,1587.39,1597.35,1607.87,1611.42,1613.36,1612.03,1611.09,1609.81,1610.83,1609.61,1610.97,1611.13,1611.17,1610.10,1610.17,1610.01,1610.93,1611.62,1612.79,1613.14,1612.04,1613.56,1613.67,1616.11,1616.05,1616.20,1616.71,1617.49,1617.95,1617.55,1617.81,1619.21,1620.37,1620.40,1621.84,1623.06,1624.91,1625.04,1621.98,1616.85,1613.83,1614.09,1615.42,1616.76,1617.57,1617.30,1616.42,1615.72,0.00,0.00,0.00,0.00,1309.00,1316.91,0.00,1332.82,1339.98,0.00,0.00,0.00,0.00,0.00,0.00,0.00,0.00,0.00,0.00,0.00,0.00,0.00,0.00,0.00,0.00,0.00,646.74,657.81,659.58,657.15,652.46,650.47,650.75,648.89,641.35,0.00,0.00,0.00,0.00,0.00,0.00,0.00,0.00,0.00,0.00,0.00,0.00,0.00,0.00,0.00,0.00,0.00,0.00,0.00,0.00,0.00,0.00,643.19,669.29,680.31,685.70,686.91,687.25,688.11,688.38,689.46,689.51,689.34,688.20,687.23,687.24,688.67,690.52,691.83,692.64,691.64,691.60,692.79,694.12,695.33,695.33,695.19,696.17,696.72,698.41,697.78,697.98,697.65,699.39,700.57,700.96,700.27,700.42,700.21,700.58,700.65,703.33,703.37,702.68,701.02,699.95,699.22,699.90,699.03,698.49,694.44,694.02,692.92,692.46,691.01,689.96,688.44,686.31,683.31,679.36,674.77,671.96,671.04,670.10,667.25,664.52,662.04,657.74,652.86,649.44,647.08,643.38,637.21,635.08,632.91,631.56,627.99,625.37,623.67,622.53,620.91,619.88,618.86,617.87,616.22,610.91,608.98,607.25,606.59,601.82,600.21,599.44,601.76,599.06,597.18,593.07,590.09,586.95,583.58,581.63,579.57,579.35,578.74,578.26,576.01,573.62,571.76,571.63,570.34,570.25,0.00,0.00,0.00,0.00,562.20,562.11,563.38,0.00,559.66,559.38,558.81,559.78,559.28,560.09,559.32,559.14,559.47,559.28,558.83,558.48,559.82,561.92,563.77,566.21,572.73,584.58,596.47,606.69,613.55,619.40,620.10,618.50,617.34,617.72,617.71,618.10,617.31,0.00,617.26,0.00,613.97,0.00,0.00,0.00,0.00,0.00,0.00,0.00,0.00,0.00,0.00,0.00,0.00,0.00,0.00,0.00,0.00,0.00,0.00,0.00,0.00,0.00,0.00,0.00,0.00,0.00,0.00,0.00,0.00,0.00,0.00,0.00,0.00,0.00,588.61,0.00,0.00,0.00,0.00,0.00,0.00,0.00,0.00,0.00,0.00,0.00,0.00,0.00,0.00,0.00,0.00,0.00,0.00,587.62,587.45,585.19,580.81,578.05,571.09,564.94,558.94,555.51,551.81,0.00,0.00,541.09,0.00,0.00,0.00,0.00,0.00,540.86,545.05,555.77,566.20,572.32,574.74,0.00,0.00,0.00,0.00,0.00,0.00,0.00,0.00,0.00,0.00,574.57,0.00,574.32,571.45,568.28,563.88,0.00,557.09,555.70,555.02,553.22,552.65,552.53,552.44,551.85,548.97,549.10,547.96,548.55,548.74,548.82,549.71,551.05,551.09,549.53,547.14,545.17,543.71,541.47,541.25,539.75,540.35,539.42,539.43,537.81,536.66,534.16,531.13,525.05,521.87,517.25,512.72,505.22,0.00,0.00,0.00,0.00,0.00,0.00,0.00,0.00,0.00,0.00,0.00,0.00,0.00,0.00,0.00,0.00,0.00,0.00,0.00,0.00,0.00,0.00,0.00,0.00,0.00,0.00,0.00,0.00,0.00,0.00,0.00,0.00,0.00,0.00,0.00,0.00,0.00,0.00,0.00,0.00,0.00,0.00,0.00,0.00,0.00
0.00,0.00,0.00,0.00,0.00,0.00,0.00,0.00,0.00,0.00,0.00,0.00,0.00,0.00,0.00,0.00,0.00,0.00,0.00,0.00,0.00,0.00,0.00,0.00,0.00,0.00,0.00,0.00,0.00,0.00,0.00,0.00,0.00,0.00,0.00,0.00,0.00,0.00,0.00,0.00,0.00,0.00,0.00,0.00,0.00,0.00,0.00,0.00,0.00,0.00,0.00,0.00,0.00,0.00,0.00,0.00,0.00,0.00,0.00,0.00,0.00,0.00,0.00,0.00,0.00,0.00,0.00,1585.37,1596.34,1606.75,1610.85,1610.56,1609.20,1607.41,1608.02,1608.79,1606.92,1607.39,1607.89,1608.12,1607.93,1607.97,1608.66,1608.22,1609.52,1610.25,1612.77,1611.93,1613.29,1611.98,1613.84,1612.79,1613.80,1613.92,1614.98,1615.40,1615.25,1616.84,1618.17,1619.87,1618.82,1618.82,1619.30,1620.28,1621.15,1618.11,1614.58,1612.16,1613.02,1614.43,1615.86,1615.81,1615.81,1615.12,1616.67,0.00,0.00,0.00,0.00,1298.02,1309.82,0.00,1343.47,1336.83,0.00,0.00,0.00,0.00,0.00,0.00,0.00,0.00,0.00,0.00,0.00,0.00,0.00,0.00,0.00,0.00,659.35,664.72,667.57,667.15,666.35,663.89,664.17,663.07,662.12,657.69,647.43,0.00,0.00,0.00,0.00,0.00,0.00,0.00,0.00,0.00,0.00,0.00,0.00,0.00,0.00,0.00,0.00,0.00,0.00,0.00,0.00,0.00,0.00,656.29,673.87,681.50,683.69,682.80,683.39,682.83,685.11,684.59,686.10,685.10,685.75,684.83,686.00,686.78,688.14,688.04,686.74,685.98,687.22,688.23,689.53,690.06,691.44,690.64,689.65,688.34,688.07,686.77,685.87,685.38,685.62,686.21,688.44,691.97,695.01,696.49,697.68,699.61,700.79,701.45,700.84,700.03,698.87,699.76,698.73,698.35,694.60,694.17,692.81,692.49,691.36,689.36,687.34,685.47,682.40,678.28,673.27,670.25,668.52,666.99,665.12,662.85,661.75,655.26,650.96,645.67,644.91,640.49,635.07,632.98,630.91,630.06,625.85,623.89,621.51,621.71,619.49,617.55,615.42,614.70,615.11,611.65,610.35,608.48,607.76,603.18,600.82,599.66,600.81,597.86,594.68,590.91,588.27,585.29,580.91,578.12,576.32,576.13,575.84,575.35,573.89,572.11,570.20,568.71,566.70,564.68,0.00,563.43,561.30,0.00,0.00,559.35,0.00,0.00,557.12,555.56,554.47,556.25,556.47,558.41,556.86,0.00,555.40,554.28,554.00,553.49,553.96,553.91,554.70,557.07,560.70,567.31,574.79,584.26,594.44,604.39,610.78,613.68,614.59,615.11,614.39,0.00,611.48,0.00,0.00,611.11,0.00,0.00,608.47,0.00,0.00,0.00,602.58,0.00,0.00,0.00,0.00,596.79,595.29,0.00,0.00,0.00,0.00,0.00,0.00,0.00,0.00,0.00,0.00,0.00,0.00,0.00,0.00,0.00,0.00,0.00,0.00,0.00,0.00,0.00,582.90,0.00,0.00,0.00,0.00,0.00,0.00,0.00,0.00,0.00,0.00,0.00,0.00,0.00,0.00,0.00,0.00,0.00,582.58,584.92,586.01,583.53,578.72,573.67,566.53,560.99,556.21,552.69,0.00,0.00,0.00,0.00,0.00,0.00,0.00,0.00,0.00,0.00,543.58,554.17,566.34,574.14,0.00,578.55,579.29,0.00,0.00,0.00,0.00,582.95,581.51,0.00,0.00,0.00,573.49,574.38,573.44,570.74,567.25,564.11,561.27,559.61,558.00,555.25,554.60,553.65,553.39,551.48,549.41,548.20,546.75,547.59,548.71,550.59,550.26,549.48,548.05,547.30,546.06,545.11,543.98,542.71,541.72,539.64,539.86,539.77,539.96,539.65,537.90,535.95,532.30,524.42,522.30,519.89,519.38,512.34,503.49,0.00,0.00,0.00,0.00,0.00,0.00,0.00,0.00,0.00,0.00,0.00,0.00,0.00,0.00,0.00,0.00,0.00,0.00,0.00,0.00,0.00,0.00,0.00,0.00,0.00,0.00,0.00,0.00,0.00,0.00,0.00,0.00,0.00,0.00,0.00,0.00,0.00,0.00,0.00,0.00,0.00,0.00,0.00,0.00
0.00,0.00,0.00,0.00,0.00,0.00,0.00,0.00,0.00,0.00,0.00,0.00,0.00,0.00,0.00,0.00,0.00,0.00,0.00,0.00,0.00,0.00,0.00,0.00,0.00,0.00,0.00,0.00,0.00,0.00,0.00,0.00,0.00,0.00,0.00,0.00,0.00,0.00,0.00,0.00,0.00,0.00,0.00,0.00,0.00,0.00,0.00,0.00,0.00,0.00,0.00,0.00,0.00,0.00,0.00,0.00,0.00,0.00,0.00,0.00,0.00,0.00,0.00,0.00,0.00,0.00,1557.34,1585.32,1597.44,1609.07,1611.95,1611.14,1609.54,1608.49,1609.72,1609.98,1608.13,1607.44,1606.84,1608.20,1608.25,1609.78,1609.60,1608.87,1609.77,1610.56,1612.93,1612.11,1612.62,1611.40,1612.38,1612.84,1614.05,1614.73,1614.96,1616.56,1615.79,1618.11,1618.27,1620.01,1618.54,1619.58,1620.24,1620.57,1621.03,1618.88,1615.93,1613.23,1613.98,1616.00,1616.74,1617.12,1616.31,1616.57,1618.07,0.00,0.00,0.00,0.00,1298.10,1312.94,0.00,0.00,1341.73,0.00,0.00,0.00,0.00,0.00,0.00,0.00,0.00,0.00,0.00,0.00,0.00,0.00,0.00,653.70,666.67,672.99,675.95,676.75,675.57,673.43,671.54,670.69,669.18,668.11,665.38,661.61,643.19,0.00,0.00,0.00,0.00,0.00,0.00,0.00,0.00,0.00,0.00,0.00,0.00,0.00,0.00,0.00,0.00,0.00,0.00,0.00,0.00,0.00,639.22,661.61,674.41,677.23,678.07,678.78,678.60,679.88,680.50,681.24,680.50,679.55,679.35,680.16,680.90,680.96,679.17,676.89,675.19,673.68,671.50,669.66,669.34,669.52,668.42,664.00,662.37,660.77,657.86,654.74,0.00,0.00,0.00,657.48,663.96,672.02,682.27,690.49,698.58,701.54,703.23,702.48,703.30,702.36,703.34,700.37,699.83,696.05,695.80,693.24,692.58,691.21,688.76,687.29,685.11,682.06,678.07,674.00,670.58,667.70,665.94,663.94,661.20,659.05,653.75,651.33,647.76,645.94,640.99,635.78,634.92,630.66,629.83,625.76,626.77,624.15,624.23,620.56,618.98,615.70,615.30,615.91,616.06,614.63,613.16,610.21,606.94,603.26,601.98,600.04,598.02,595.89,593.66,591.24,586.88,583.88,580.40,579.85,579.05,577.51,577.11,575.96,576.45,573.44,570.71,567.05,565.20,564.41,564.03,561.30,557.92,0.00,0.00,561.78,560.38,0.00,0.00,555.41,557.05,0.00,558.73,0.00,0.00,0.00,554.11,553.29,554.02,554.99,554.69,554.91,556.09,556.67,558.84,561.94,567.02,575.00,585.48,595.05,603.51,607.50,612.54,613.60,616.36,614.62,614.17,613.14,0.00,612.72,610.34,608.13,0.00,605.69,0.00,602.41,602.25,600.36,0.00,599.70,597.81,594.36,593.01,590.87,590.60,588.55,588.57,587.02,586.39,583.36,582.65,582.56,0.00,582.86,0.00,0.00,584.13,584.26,584.24,0.00,585.77,585.75,588.30,0.00,0.00,0.00,0.00,0.00,0.00,0.00,0.00,0.00,0.00,0.00,0.00,0.00,0.00,0.00,0.00,0.00,583.94,584.24,585.95,587.64,586.15,579.94,572.36,564.85,560.71,557.91,0.00,548.44,0.00,0.00,0.00,0.00,0.00,0.00,0.00,0.00,0.00,0.00,556.47,569.96,578.41,581.49,582.07,582.49,0.00,584.54,0.00,586.44,0.00,587.32,584.46,579.59,577.01,576.73,0.00,577.76,577.20,574.38,572.98,569.46,567.80,564.40,562.17,560.85,560.05,559.10,557.60,556.18,555.69,553.12,552.44,551.15,553.12,552.69,551.69,548.93,547.80,546.82,546.09,545.17,546.01,546.56,546.47,545.20,544.22,542.40,542.63,541.00,539.88,535.61,527.81,525.76,524.93,528.37,522.48,513.29,0.00,0.00,0.00,0.00,0.00,0.00,0.00,0.00,0.00,0.00,0.00,0.00,0.00,0.00,0.00,0.00,0.00,0.00,0.00,0.00,0.00,0.00,0.00,0.00,0.00,0.00,0.00,0.00,0.00,0.00,0.00,0.00,0.00,0.00,0.00,0.00,0.00,0.00,0.00,0.00,0.00,0.00,0.00,0.00
0.00,0.00,0.00,0.00,0.00,0.00,0.00,0.00,0.00,0.00,0.00,0.00,0.00,0.00,0.00,0.00,0.00,0.00,0.00,0.00,0.00,0.00,0.00,0.00,0.00,0.00,0.00,0.00,0.00,0.00,0.00,0.00,0.00,0.00,0.00,0.00,0.00,0.00,0.00,0.00,0.00,0.00,0.00,0.00,0.00,0.00,0.00,0.00,0.00,0.00,0.00,0.00,0.00,0.00,0.00,0.00,0.00,0.00,0.00,0.00,0.00,0.00,0.00,0.00,0.00,0.00,1562.55,1581.20,1594.53,1606.67,1609.74,1607.27,1605.86,1605.35,1607.59,1608.72,1606.47,1603.63,1603.07,1604.98,1606.56,1607.38,1607.54,1605.86,1606.60,1607.02,1610.26,1609.34,1609.76,1609.03,1610.56,1610.71,1612.41,1612.57,1612.94,1613.11,1612.92,1615.38,1616.31,1616.77,1615.37,1615.44,1617.06,1617.26,1617.84,1615.36,1612.72,1611.67,1612.14,1613.98,1614.96,1616.68,1616.59,1616.19,1616.03,0.00,0.00,0.00,0.00,0.00,1318.78,0.00,0.00,1344.79,0.00,0.00,0.00,0.00,0.00,0.00,0.00,0.00,0.00,0.00,0.00,0.00,0.00,653.28,665.10,670.53,674.73,675.62,675.27,673.59,672.24,670.60,669.86,667.56,666.47,663.33,662.02,647.18,615.74,0.00,0.00,0.00,0.00,0.00,0.00,0.00,0.00,0.00,0.00,0.00,0.00,0.00,0.00,0.00,0.00,0.00,0.00,0.00,0.00,0.00,0.00,0.00,650.94,652.56,654.48,654.47,654.61,654.24,655.17,653.45,653.34,651.85,651.14,651.71,650.58,647.50,643.38,636.76,0.00,0.00,0.00,0.00,0.00,0.00,0.00,0.00,0.00,0.00,0.00,0.00,0.00,0.00,0.00,0.00,0.00,0.00,657.43,675.59,686.96,694.01,698.34,700.62,701.40,701.96,699.39,698.84,695.71,694.78,692.47,692.01,691.54,688.57,686.53,683.52,680.86,676.81,674.84,671.61,668.53,665.29,662.57,658.20,654.82,649.45,648.61,644.53,641.79,637.21,633.25,633.71,629.56,628.28,624.85,625.37,624.25,622.17,619.70,616.60,615.00,613.51,614.44,614.06,613.37,611.32,608.92,607.19,602.71,600.36,595.26,593.84,593.39,593.58,591.92,586.75,583.06,580.79,580.22,578.02,574.59,573.76,574.79,574.64,569.97,565.47,0.00,563.55,564.19,563.82,0.00,0.00,0.00,559.67,559.17,558.14,0.00,0.00,0.00,554.85,556.06,0.00,0.00,0.00,0.00,0.00,0.00,0.00,0.00,0.00,0.00,552.59,552.22,0.00,552.75,554.95,559.56,566.00,572.48,580.94,587.90,595.76,600.92,606.70,609.34,610.52,610.42,610.59,609.41,606.95,0.00,605.07,604.76,0.00,0.00,601.00,0.00,0.00,598.32,597.11,0.00,0.00,0.00,0.00,0.00,586.74,0.00,0.00,0.00,0.00,0.00,0.00,0.00,0.00,0.00,0.00,0.00,0.00,0.00,584.55,584.83,586.08,584.94,0.00,0.00,0.00,0.00,583.89,0.00,592.23,0.00,0.00,0.00,0.00,0.00,0.00,0.00,0.00,584.26,582.31,0.00,581.75,584.92,583.54,577.18,568.79,561.92,556.79,554.68,0.00,0.00,0.00,0.00,0.00,0.00,0.00,0.00,0.00,0.00,0.00,0.00,553.76,568.28,578.06,581.17,0.00,583.19,585.19,587.57,588.05,588.54,588.09,589.91,588.78,585.88,580.95,579.16,578.73,578.47,578.99,578.82,578.23,574.60,571.89,567.79,565.38,563.72,563.97,563.13,561.24,560.09,559.06,556.99,554.65,552.35,553.02,551.95,551.23,548.16,546.85,546.16,546.10,545.77,546.80,548.66,550.23,549.72,548.91,547.36,547.83,545.47,541.64,536.37,530.55,532.05,529.90,531.46,524.48,514.97,0.00,0.00,0.00,0.00,0.00,0.00,0.00,0.00,0.00,0.00,0.00,0.00,0.00,0.00,0.00,0.00,0.00,0.00,0.00,0.00,0.00,0.00,0.00,0.00,0.00,0.00,0.00,0.00,0.00,0.00,0.00,0.00,0.00,0.00,0.00,0.00,0.00,0.00,0.00,0.00,0.00,0.00,0.00,0.00
0.00,0.00,0.00,0.00,0.00,0.00,0.00,0.00,0.00,0.00,0.00,0.00,0.00,0.00,0.00,0.00,0.00,0.00,0.00,0.00,0.00,0.00,0.00,0.00,0.00,0.00,0.00,0.00,0.00,0.00,0.00,0.00,0.00,0.00,0.00,0.00,0.00,0.00,0.00,0.00,0.00,0.00,0.00,0.00,0.00,0.00,0.00,0.00,0.00,0.00,0.00,0.00,0.00,0.00,0.00,0.00,0.00,0.00,0.00,0.00,0.00,0.00,0.00,0.00,0.00,0.00,1561.48,1580.91,1593.74,1606.11,1608.43,1607.27,1606.38,1606.36,1607.81,1609.11,1607.79,1605.52,1604.49,1605.21,1605.56,1606.47,1607.45,1607.80,1607.19,1607.13,1607.51,1607.78,1608.99,1610.64,1612.40,1612.70,1613.44,1613.97,1614.49,1614.76,1613.44,1615.05,1615.43,1617.08,1616.34,1617.29,1618.24,1618.51,1619.38,1615.76,1612.36,1610.49,1612.01,1614.35,1615.82,1617.86,1616.97,1616.54,1615.62,0.00,0.00,0.00,0.00,1314.08,1331.09,0.00,0.00,0.00,0.00,0.00,0.00,0.00,0.00,0.00,0.00,0.00,0.00,0.00,0.00,0.00,642.15,653.35,664.24,668.88,671.69,671.94,670.79,670.51,669.33,668.28,666.25,663.35,658.72,651.85,645.93,636.08,0.00,0.00,0.00,0.00,0.00,0.00,0.00,0.00,0.00,0.00,0.00,0.00,0.00,0.00,0.00,0.00,0.00,0.00,0.00,0.00,0.00,0.00,0.00,0.00,0.00,0.00,0.00,0.00,0.00,0.00,0.00,0.00,0.00,0.00,0.00,0.00,0.00,0.00,0.00,0.00,0.00,0.00,0.00,0.00,0.00,0.00,0.00,0.00,0.00,0.00,0.00,0.00,0.00,0.00,0.00,0.00,0.00,0.00,0.00,0.00,0.00,672.13,684.40,695.37,700.12,701.74,700.20,699.31,696.24,694.82,692.67,691.74,690.53,688.35,687.68,683.98,681.31,676.81,675.58,672.53,669.62,666.17,662.31,658.03,654.22,650.23,649.19,646.46,642.98,638.89,635.97,635.95,630.41,629.01,626.58,627.80,625.26,622.80,620.27,619.38,618.50,616.91,615.49,614.23,613.58,612.57,610.49,608.38,603.58,600.98,596.88,595.64,594.66,594.18,592.57,588.99,587.28,586.44,584.69,581.67,578.48,578.70,579.42,579.27,574.34,570.20,0.00,567.99,567.46,566.99,0.00,0.00,0.00,559.56,560.26,0.00,0.00,0.00,556.48,555.72,555.93,0.00,550.88,0.00,0.00,0.00,0.00,0.00,0.00,0.00,0.00,0.00,0.00,552.54,552.26,554.18,556.64,558.98,559.74,564.91,568.70,575.38,580.54,592.44,601.85,608.05,610.15,610.50,610.19,0.00,606.67,0.00,606.34,0.00,0.00,601.42,600.48,0.00,599.59,597.59,0.00,0.00,0.00,0.00,0.00,0.00,0.00,0.00,0.00,0.00,0.00,0.00,0.00,0.00,0.00,0.00,0.00,0.00,0.00,0.00,0.00,0.00,0.00,0.00,0.00,585.83,0.00,580.41,0.00,0.00,0.00,581.43,0.00,0.00,581.14,0.00,0.00,0.00,0.00,0.00,0.00,582.70,584.66,583.13,577.21,569.41,561.46,556.41,553.78,0.00,0.00,0.00,0.00,0.00,0.00,0.00,0.00,0.00,0.00,0.00,0.00,551.50,565.27,577.58,582.42,585.12,587.09,591.01,0.00,592.51,591.91,591.94,593.65,593.59,592.98,589.54,587.94,586.79,585.46,586.02,586.39,586.43,582.21,578.57,574.51,572.84,571.61,573.60,573.36,573.36,570.71,569.14,563.73,560.05,555.52,556.64,556.78,558.17,555.02,553.43,551.48,551.01,550.58,551.96,553.90,556.23,556.28,556.08,553.52,553.01,550.75,546.99,542.18,536.83,535.67,531.02,530.63,524.29,517.52,505.43,0.00,0.00,0.00,0.00,0.00,0.00,0.00,0.00,0.00,0.00,0.00,0.00,0.00,0.00,0.00,0.00,0.00,0.00,0.00,0.00,0.00,0.00,0.00,0.00,0.00,0.00,0.00,0.00,0.00,0.00,0.00,0.00,0.00,0.00,0.00,0.00,0.00,0.00,0.00,0.00,0.00,0.00,0.00
0.00,0.00,0.00,0.00,0.00,0.00,0.00,0.00,0.00,0.00,0.00,0.00,0.00,0.00,0.00,0.00,0.00,0.00,0.00,0.00,0.00,0.00,0.00,0.00,0.00,0.00,0.00,0.00,0.00,0.00,0.00,0.00,0.00,0.00,0.00,0.00,0.00,0.00,0.00,0.00,0.00,0.00,0.00,0.00,0.00,0.00,0.00,0.00,0.00,0.00,0.00,0.00,0.00,0.00,0.00,0.00,0.00,0.00,0.00,0.00,0.00,0.00,0.00,0.00,0.00,0.00,1560.58,1578.00,1590.79,1602.12,1605.57,1605.86,1606.07,1605.20,1604.70,1605.06,1604.49,1602.83,1602.40,1602.36,1602.81,1603.26,1604.13,1605.08,1604.58,1604.52,1605.13,1605.83,1607.86,1608.96,1610.50,1609.68,1610.84,1611.67,1612.66,1611.36,1610.55,1612.13,1613.75,1615.22,1614.74,1615.23,1616.99,1617.77,1618.66,1613.87,1610.60,1609.35,1611.42,1612.86,1613.94,1615.05,1616.04,1616.65,1616.60,0.00,0.00,0.00,0.00,0.00,0.00,0.00,0.00,0.00,0.00,0.00,0.00,0.00,0.00,0.00,0.00,0.00,0.00,0.00,0.00,0.00,0.00,0.00,646.07,651.29,655.50,655.87,655.64,654.82,655.09,653.19,650.51,642.99,0.00,0.00,0.00,0.00,0.00,0.00,0.00,0.00,0.00,0.00,0.00,0.00,0.00,0.00,0.00,0.00,0.00,0.00,0.00,0.00,0.00,0.00,0.00,0.00,0.00,0.00,0.00,0.00,0.00,0.00,0.00,0.00,0.00,0.00,0.00,0.00,0.00,0.00,0.00,0.00,0.00,0.00,0.00,0.00,0.00,0.00,0.00,0.00,0.00,0.00,0.00,0.00,0.00,0.00,0.00,0.00,0.00,0.00,0.00,0.00,0.00,0.00,0.00,0.00,0.00,0.00,0.00,672.93,687.17,694.38,695.95,694.92,693.00,692.25,691.63,690.42,688.63,687.22,687.74,684.29,681.33,676.01,674.71,670.99,668.53,664.92,660.16,654.79,652.09,648.37,646.53,642.42,640.84,637.78,634.34,631.50,626.81,625.74,625.33,625.58,623.40,620.47,618.49,619.01,618.26,616.38,613.87,612.22,611.64,609.43,608.01,606.41,603.22,600.16,597.08,595.23,593.95,591.72,589.61,586.44,585.13,584.85,584.00,580.19,577.41,576.58,578.11,576.76,572.12,568.32,566.76,568.51,567.20,565.85,561.36,0.00,0.00,0.00,0.00,0.00,559.45,0.00,554.80,0.00,0.00,0.00,0.00,0.00,558.52,0.00,0.00,0.00,0.00,0.00,0.00,549.51,550.16,551.02,550.34,550.69,551.32,551.33,551.51,554.79,557.37,559.98,562.40,569.77,580.46,590.58,598.56,602.84,604.98,604.59,604.64,603.93,0.00,603.00,0.00,600.17,0.00,0.00,597.27,0.00,0.00,0.00,0.00,591.68,0.00,0.00,0.00,0.00,0.00,0.00,0.00,0.00,0.00,0.00,0.00,0.00,0.00,0.00,0.00,0.00,0.00,0.00,0.00,0.00,0.00,0.00,0.00,0.00,0.00,0.00,0.00,0.00,0.00,0.00,0.00,0.00,0.00,0.00,0.00,0.00,578.10,580.01,580.91,577.63,573.41,567.20,559.71,554.23,550.49,0.00,0.00,0.00,0.00,0.00,0.00,542.10,0.00,0.00,0.00,0.00,0.00,545.29,558.82,574.45,581.96,585.89,587.55,591.82,591.63,0.00,0.00,0.00,594.41,594.86,595.01,592.33,591.55,590.13,590.06,589.85,591.85,591.92,590.19,586.92,583.61,581.54,580.81,583.61,584.85,584.38,580.28,574.88,569.39,565.83,563.42,564.43,564.66,564.81,561.93,559.43,559.31,559.03,559.77,558.77,559.36,560.16,561.96,561.74,560.49,557.64,555.13,551.25,546.89,542.63,538.36,530.70,527.14,520.11,515.96,505.22,0.00,0.00,0.00,0.00,0.00,0.00,0.00,0.00,0.00,0.00,0.00,0.00,0.00,0.00,0.00,0.00,0.00,0.00,0.00,0.00,0.00,0.00,0.00,0.00,0.00,0.00,0.00,0.00,0.00,0.00,0.00,0.00,0.00,0.00,0.00,0.00,0.00,0.00,0.00,0.00,0.00,0.00,0.00
0.00,0.00,0.00,0.00,0.00,0.00,0.00,0.00,0.00,0.00,0.00,0.00,0.00,0.00,0.00,0.00,0.00,0.00,0.00,0.00,0.00,0.00,0.00,0.00,0.00,0.00,0.00,0.00,0.00,0.00,0.00,0.00,0.00,0.00,0.00,0.00,0.00,0.00,0.00,0.00,0.00,0.00,0.00,0.00,0.00,0.00,0.00,0.00,0.00,0.00,0.00,0.00,0.00,0.00,0.00,0.00,0.00,0.00,0.00,0.00,0.00,0.00,0.00,0.00,0.00,0.00,1562.14,1579.04,1590.41,1602.92,1605.99,1607.73,1607.63,1606.67,1605.07,1605.37,1605.06,1604.08,1602.07,1602.22,1602.73,1604.89,1604.47,1605.99,1604.59,1605.00,1604.74,1605.88,1608.63,1609.85,1610.14,1608.61,1609.30,1611.49,1613.43,1613.14,1611.81,1612.23,1613.66,1616.67,1616.80,1617.81,1618.67,1620.88,1622.49,1620.07,1617.94,1617.26,1621.78,1623.16,1622.89,1621.41,1622.25,1622.52,1623.96,0.00,0.00,0.00,0.00,0.00,0.00,0.00,0.00,0.00,0.00,0.00,0.00,0.00,0.00,0.00,0.00,0.00,0.00,0.00,0.00,0.00,0.00,552.49,0.00,620.60,631.65,633.13,630.70,628.48,0.00,0.00,0.00,0.00,0.00,0.00,0.00,0.00,0.00,0.00,0.00,0.00,0.00,0.00,0.00,0.00,0.00,0.00,0.00,0.00,0.00,0.00,0.00,0.00,0.00,0.00,0.00,0.00,0.00,0.00,0.00,0.00,0.00,0.00,0.00,0.00,0.00,0.00,0.00,0.00,0.00,0.00,0.00,0.00,0.00,0.00,0.00,0.00,0.00,0.00,0.00,0.00,0.00,0.00,0.00,0.00,0.00,0.00,0.00,0.00,0.00,0.00,0.00,0.00,0.00,0.00,0.00,0.00,0.00,0.00,0.00,0.00,656.77,678.55,688.03,692.90,691.96,691.46,690.91,689.59,687.51,686.38,687.44,684.29,681.42,676.81,673.85,669.96,666.80,663.95,660.06,655.75,654.15,650.38,647.58,642.95,641.11,637.99,634.60,630.57,626.02,625.56,625.52,626.42,624.31,623.21,620.37,620.77,617.60,616.12,613.30,612.66,611.97,609.82,607.56,605.65,602.46,600.79,599.21,597.77,595.66,592.29,589.98,587.09,586.60,585.70,586.67,583.33,580.80,579.32,580.26,580.04,575.91,572.15,569.35,569.29,567.42,566.48,563.48,0.00,559.72,0.00,0.00,0.00,560.59,0.00,0.00,556.34,0.00,550.59,0.00,0.00,0.00,0.00,0.00,0.00,0.00,551.27,549.85,549.50,0.00,0.00,550.09,549.35,549.36,548.99,549.96,551.16,554.49,555.82,556.82,559.34,563.33,570.20,580.21,589.04,595.42,599.64,602.84,0.00,605.06,0.00,602.56,599.30,598.86,599.14,596.25,0.00,0.00,590.17,590.68,591.64,0.00,0.00,0.00,0.00,0.00,0.00,0.00,0.00,0.00,0.00,0.00,0.00,0.00,0.00,0.00,0.00,0.00,0.00,0.00,0.00,0.00,0.00,0.00,0.00,0.00,0.00,0.00,0.00,0.00,0.00,0.00,0.00,0.00,0.00,0.00,0.00,577.63,580.62,580.53,577.12,572.48,567.67,560.82,556.05,0.00,0.00,0.00,0.00,0.00,0.00,0.00,0.00,0.00,0.00,0.00,0.00,0.00,547.31,558.22,574.91,584.97,590.29,0.00,594.79,0.00,596.44,0.00,0.00,599.51,600.03,599.87,598.56,597.47,597.38,597.62,598.40,600.23,601.88,602.35,600.27,596.33,593.20,591.46,592.47,592.46,592.06,589.23,585.40,580.51,576.82,574.51,575.18,575.08,573.93,569.99,567.12,566.56,565.80,565.73,563.96,564.49,564.43,566.02,566.72,565.53,562.37,558.35,556.50,553.43,548.98,540.81,531.94,526.30,521.31,516.98,509.68,501.26,0.00,0.00,0.00,0.00,0.00,0.00,0.00,0.00,0.00,0.00,0.00,0.00,0.00,0.00,0.00,0.00,0.00,0.00,0.00,0.00,0.00,0.00,0.00,0.00,0.00,0.00,0.00,0.00,0.00,0.00,0.00,0.00,0.00,0.00,0.00,0.00,0.00,0.00,0.00,0.00,0.00,0.00
0.00,0.00,0.00,0.00,0.00,0.00,0.00,0.00,0.00,0.00,0.00,0.00,0.00,0.00,0.00,0.00,0.00,0.00,0.00,0.00,0.00,0.00,0.00,0.00,0.00,0.00,0.00,0.00,0.00,0.00,0.00,0.00,0.00,0.00,0.00,0.00,0.00,0.00,0.00,0.00,0.00,0.00,0.00,0.00,0.00,0.00,0.00,0.00,0.00,0.00,0.00,0.00,0.00,0.00,0.00,0.00,0.00,0.00,0.00,0.00,0.00,0.00,0.00,0.00,0.00,0.00,0.00,1574.38,1586.95,1600.40,1604.65,1606.36,1606.46,1605.24,1604.14,1604.33,1603.82,1602.02,1599.30,1600.80,1602.05,1605.04,1603.50,1604.59,1603.63,1604.30,1604.84,1604.80,1606.62,1606.52,1608.08,1606.87,1608.40,1610.48,1613.90,1614.50,1613.56,1614.40,1616.59,1620.05,1620.22,1619.91,1620.85,1624.35,1629.70,1628.05,0.00,0.00,0.00,0.00,0.00,0.00,0.00,0.00,0.00,0.00,0.00,0.00,0.00,0.00,0.00,0.00,0.00,0.00,0.00,0.00,0.00,0.00,0.00,0.00,0.00,0.00,0.00,0.00,0.00,0.00,0.00,0.00,524.50,561.26,584.62,591.74,586.91,0.00,0.00,0.00,0.00,0.00,0.00,0.00,0.00,0.00,0.00,0.00,0.00,0.00,0.00,0.00,0.00,0.00,0.00,0.00,0.00,0.00,0.00,0.00,0.00,0.00,0.00,0.00,0.00,0.00,0.00,0.00,0.00,0.00,0.00,0.00,0.00,0.00,0.00,0.00,0.00,0.00,0.00,0.00,0.00,0.00,0.00,0.00,0.00,0.00,0.00,0.00,0.00,0.00,0.00,0.00,0.00,0.00,0.00,0.00,0.00,0.00,0.00,0.00,0.00,0.00,0.00,0.00,0.00,0.00,0.00,0.00,0.00,0.00,0.00,0.00,0.00,674.42,683.20,687.72,687.98,686.83,686.02,684.96,684.73,682.17,679.94,675.81,671.54,667.93,664.63,661.04,656.79,652.40,650.66,647.42,644.58,639.07,636.29,634.39,631.44,627.24,623.54,623.71,623.90,623.17,621.55,620.29,618.75,618.09,614.75,610.99,608.27,607.64,608.19,605.80,604.09,602.29,601.29,599.38,598.51,596.34,595.73,591.80,589.05,585.37,585.55,584.90,586.04,582.26,578.16,575.55,576.10,577.23,574.42,571.30,567.97,566.44,563.99,0.00,0.00,562.56,0.00,0.00,0.00,0.00,0.00,0.00,0.00,554.78,0.00,0.00,0.00,0.00,0.00,0.00,0.00,0.00,0.00,547.43,547.40,546.82,0.00,0.00,0.00,0.00,545.14,545.66,0.00,547.74,551.62,552.14,553.36,552.12,553.28,555.98,562.43,568.90,576.89,586.95,595.60,0.00,601.49,601.29,0.00,0.00,0.00,0.00,0.00,0.00,0.00,0.00,0.00,0.00,0.00,0.00,0.00,591.11,0.00,0.00,0.00,0.00,0.00,0.00,0.00,0.00,0.00,0.00,0.00,0.00,0.00,0.00,0.00,0.00,0.00,0.00,0.00,0.00,0.00,0.00,0.00,0.00,0.00,0.00,0.00,0.00,0.00,0.00,0.00,0.00,0.00,577.43,577.25,573.64,569.72,566.01,560.94,554.67,0.00,0.00,0.00,0.00,0.00,0.00,0.00,0.00,0.00,0.00,0.00,0.00,0.00,542.22,552.20,569.90,583.39,589.38,0.00,0.00,0.00,0.00,599.23,600.69,601.64,601.90,600.93,599.26,598.30,599.78,602.05,604.53,605.22,606.51,606.51,605.19,600.14,596.00,593.10,592.85,591.34,589.23,587.65,585.24,583.78,580.48,579.25,577.78,576.85,573.94,570.09,567.00,566.42,565.88,564.74,563.75,564.23,564.48,565.29,563.55,562.28,558.11,554.80,552.64,549.25,547.58,540.00,532.21,523.77,517.31,511.54,502.37,0.00,0.00,0.00,0.00,0.00,0.00,0.00,0.00,0.00,0.00,0.00,0.00,0.00,0.00,0.00,0.00,0.00,0.00,0.00,0.00,0.00,0.00,0.00,0.00,0.00,0.00,0.00,0.00,0.00,0.00,0.00,0.00,0.00,0.00,0.00,0.00,0.00,0.00,0.00,0.00,0.00,0.00,0.00
0.00,0.00,0.00,0.00,0.00,0.00,0.00,0.00,0.00,0.00,0.00,0.00,0.00,0.00,0.00,0.00,0.00,0.00,0.00,0.00,0.00,0.00,0.00,0.00,0.00,0.00,0.00,0.00,0.00,0.00,0.00,0.00,0.00,0.00,0.00,0.00,0.00,0.00,0.00,0.00,0.00,0.00,0.00,0.00,0.00,0.00,0.00,0.00,0.00,0.00,0.00,0.00,0.00,0.00,0.00,0.00,0.00,0.00,0.00,0.00,0.00,0.00,0.00,0.00,0.00,0.00,0.00,1575.05,1587.22,1600.75,1603.75,1604.78,1605.96,1605.71,1606.52,1606.84,1606.30,1604.17,1601.67,1603.82,1604.30,1607.32,1605.56,1608.12,1607.24,1607.74,1606.83,1607.26,1607.89,1609.04,1611.87,1616.59,1615.46,1618.55,1623.41,1628.05,1628.69,1627.94,0.00,0.00,0.00,0.00,561.04,580.29,583.74,587.71,594.11,598.52,599.08,599.22,598.39,597.86,595.61,585.32,553.92,576.19,576.49,575.74,582.08,579.85,572.00,0.00,0.00,0.00,0.00,0.00,0.00,0.00,0.00,0.00,0.00,0.00,0.00,0.00,0.00,503.82,510.28,508.79,517.02,532.15,541.25,546.73,0.00,0.00,0.00,0.00,0.00,0.00,0.00,0.00,0.00,0.00,0.00,0.00,0.00,0.00,0.00,0.00,0.00,0.00,0.00,0.00,0.00,0.00,0.00,0.00,0.00,0.00,0.00,0.00,0.00,0.00,0.00,0.00,0.00,0.00,0.00,0.00,0.00,0.00,0.00,0.00,0.00,0.00,0.00,0.00,0.00,0.00,0.00,0.00,0.00,0.00,0.00,0.00,0.00,0.00,0.00,0.00,0.00,0.00,0.00,0.00,0.00,0.00,0.00,0.00,0.00,0.00,0.00,0.00,0.00,0.00,0.00,0.00,0.00,0.00,0.00,0.00,0.00,0.00,0.00,670.78,679.27,683.14,684.28,684.04,683.25,680.56,677.36,675.58,671.23,669.55,665.29,661.12,657.05,653.98,652.63,648.17,643.35,638.80,635.22,634.28,631.84,629.79,626.99,626.68,624.00,622.06,619.97,620.34,618.96,618.38,615.53,611.44,608.18,605.76,606.64,606.06,606.45,604.12,601.90,599.90,599.47,598.28,597.96,595.23,593.55,590.41,589.98,588.40,587.62,584.67,580.80,578.74,577.54,579.32,577.64,575.68,571.49,568.25,565.45,563.53,564.96,565.07,564.01,560.76,558.06,557.08,0.00,556.47,556.54,556.37,556.02,0.00,0.00,0.00,0.00,0.00,548.49,545.80,545.59,545.64,547.31,546.14,544.72,544.38,544.42,545.68,545.49,546.07,546.93,546.80,549.21,550.16,551.33,551.11,551.57,553.40,557.30,560.72,566.71,576.36,587.15,595.34,598.65,600.77,600.35,597.83,595.00,0.00,0.00,0.00,0.00,588.83,0.00,0.00,0.00,0.00,0.00,0.00,0.00,0.00,0.00,0.00,0.00,0.00,0.00,0.00,0.00,0.00,0.00,0.00,0.00,0.00,0.00,0.00,0.00,0.00,0.00,0.00,0.00,0.00,0.00,0.00,0.00,0.00,0.00,0.00,0.00,0.00,0.00,0.00,576.12,578.53,578.71,576.79,572.24,567.71,562.07,555.39,550.25,0.00,541.51,0.00,0.00,0.00,0.00,0.00,0.00,0.00,0.00,0.00,0.00,542.68,551.28,567.90,582.32,0.00,0.00,0.00,0.00,0.00,603.36,0.00,0.00,0.00,606.16,606.27,606.55,608.83,610.64,612.05,610.06,609.35,606.42,604.35,598.91,596.52,593.65,593.45,589.47,587.03,584.96,584.65,583.51,581.98,580.46,577.51,575.01,572.98,571.00,568.15,565.50,564.40,562.62,562.92,562.23,563.48,563.05,561.62,559.41,556.57,553.66,549.50,544.59,542.99,538.33,531.33,519.61,510.65,502.93,0.00,0.00,0.00,0.00,0.00,0.00,0.00,0.00,0.00,0.00,0.00,0.00,0.00,0.00,0.00,0.00,0.00,0.00,0.00,0.00,0.00,0.00,0.00,0.00,0.00,0.00,0.00,0.00,0.00,0.00,0.00,0.00,0.00,0.00,0.00,0.00,0.00,0.00,0.00,0.00,0.00,0.00,0.00,0.00
0.00,0.00,0.00,0.00,0.00,0.00,0.00,0.00,0.00,0.00,0.00,0.00,0.00,0.00,0.00,0.00,0.00,0.00,0.00,0.00,0.00,0.00,0.00,0.00,0.00,0.00,0.00,0.00,0.00,0.00,0.00,0.00,0.00,0.00,0.00,0.00,0.00,0.00,0.00,0.00,0.00,0.00,0.00,0.00,0.00,0.00,0.00,0.00,0.00,0.00,0.00,0.00,0.00,0.00,0.00,0.00,0.00,0.00,0.00,0.00,0.00,0.00,0.00,0.00,0.00,0.00,0.00,1571.27,1583.86,1598.03,1601.71,1603.45,1604.50,1604.03,1605.80,1605.71,1606.41,1606.34,1604.83,1607.36,1606.38,1605.14,0.00,0.00,0.00,0.00,0.00,0.00,0.00,0.00,0.00,0.00,0.00,0.00,552.53,571.21,573.44,573.49,577.23,578.90,582.40,585.48,590.40,590.56,592.37,592.27,596.09,600.13,602.95,602.59,600.42,599.68,599.42,598.57,595.00,593.66,593.26,595.35,596.62,597.57,597.08,598.88,602.79,598.79,590.17,0.00,0.00,515.12,0.00,0.00,0.00,0.00,0.00,0.00,515.48,527.86,534.76,537.12,542.43,543.24,534.13,523.87,0.00,0.00,0.00,0.00,0.00,0.00,0.00,0.00,0.00,0.00,0.00,0.00,0.00,0.00,0.00,0.00,0.00,0.00,0.00,0.00,0.00,0.00,0.00,0.00,0.00,0.00,0.00,0.00,0.00,0.00,0.00,0.00,0.00,0.00,0.00,0.00,0.00,0.00,0.00,0.00,0.00,0.00,0.00,0.00,0.00,0.00,0.00,0.00,0.00,0.00,0.00,0.00,0.00,0.00,0.00,0.00,0.00,0.00,0.00,0.00,0.00,0.00,0.00,0.00,0.00,0.00,0.00,0.00,0.00,0.00,0.00,0.00,0.00,0.00,0.00,0.00,0.00,0.00,0.00,0.00,0.00,664.72,674.00,679.36,679.84,677.83,673.92,670.90,668.15,666.90,664.10,660.23,657.05,652.88,648.27,641.23,636.85,633.94,632.87,632.53,631.72,630.37,628.16,625.26,622.23,619.32,618.17,616.63,615.80,614.52,612.38,608.31,605.33,603.43,604.60,604.86,605.15,601.86,600.13,598.20,597.15,596.15,596.22,594.57,592.02,590.29,590.60,589.24,585.81,583.09,580.72,579.60,577.91,578.04,576.47,574.23,571.20,568.08,0.00,562.80,563.37,562.92,561.80,558.70,556.17,553.54,553.84,553.36,554.20,553.51,553.38,551.93,551.24,0.00,548.97,547.01,546.24,544.40,543.57,542.76,544.52,543.46,0.00,0.00,542.60,544.04,543.13,543.25,543.73,544.41,545.13,544.81,543.99,543.53,545.03,548.15,551.38,551.94,555.00,561.36,572.06,582.80,588.92,593.94,595.49,595.44,0.00,0.00,0.00,0.00,0.00,0.00,0.00,0.00,0.00,0.00,0.00,0.00,0.00,0.00,0.00,0.00,0.00,0.00,0.00,0.00,0.00,0.00,0.00,0.00,0.00,0.00,0.00,0.00,0.00,0.00,0.00,0.00,0.00,0.00,0.00,0.00,0.00,0.00,0.00,0.00,0.00,0.00,0.00,0.00,576.00,576.48,577.97,575.33,571.61,564.52,558.28,551.58,547.23,0.00,0.00,0.00,0.00,0.00,0.00,0.00,0.00,0.00,0.00,0.00,0.00,537.28,544.63,559.71,575.19,0.00,0.00,0.00,0.00,0.00,602.55,0.00,0.00,0.00,608.20,609.10,609.69,612.12,611.78,609.71,605.05,602.77,599.67,597.00,592.73,591.00,589.44,589.24,585.31,582.81,580.83,581.35,580.70,579.78,578.29,575.64,573.99,571.18,570.22,567.37,564.93,562.54,561.06,561.67,560.51,560.22,558.66,554.84,552.52,548.61,547.24,541.60,534.36,533.04,529.16,525.12,512.86,502.45,0.00,0.00,0.00,0.00,0.00,0.00,0.00,0.00,0.00,0.00,0.00,0.00,0.00,0.00,0.00,0.00,0.00,0.00,0.00,0.00,0.00,0.00,0.00,0.00,0.00,0.00,0.00,0.00,0.00,0.00,0.00,0.00,0.00,0.00,0.00,0.00,0.00,0.00,0.00,0.00,0.00,0.00,0.00,0.00,0.00
0.00,0.00,0.00,0.00,0.00,0.00,0.00,0.00,0.00,0.00,0.00,0.00,0.00,0.00,0.00,0.00,0.00,0.00,0.00,0.00,0.00,0.00,0.00,0.00,0.00,0.00,0.00,0.00,0.00,0.00,0.00,0.00,0.00,0.00,0.00,0.00,0.00,0.00,0.00,0.00,0.00,0.00,0.00,0.00,0.00,0.00,0.00,0.00,0.00,0.00,0.00,0.00,0.00,0.00,0.00,0.00,0.00,0.00,0.00,0.00,0.00,0.00,0.00,0.00,0.00,0.00,0.00,1569.14,1585.78,1596.86,1602.88,1606.45,1605.90,1607.12,1608.91,0.00,0.00,0.00,0.00,0.00,0.00,0.00,0.00,0.00,0.00,0.00,0.00,0.00,0.00,0.00,0.00,0.00,548.97,577.58,582.00,581.42,579.93,580.45,583.46,586.12,588.97,589.99,594.19,594.94,598.19,598.56,600.84,603.39,604.19,604.75,601.84,600.99,599.84,599.89,599.42,600.01,600.80,602.88,604.41,604.76,605.10,607.74,611.88,613.08,609.28,602.54,587.09,571.56,560.62,561.23,546.70,547.17,541.78,541.73,542.77,547.58,552.93,556.26,561.00,559.14,540.06,0.00,0.00,0.00,0.00,0.00,0.00,0.00,0.00,0.00,0.00,0.00,0.00,0.00,0.00,0.00,0.00,0.00,0.00,0.00,0.00,0.00,0.00,0.00,0.00,0.00,0.00,0.00,0.00,0.00,0.00,0.00,0.00,0.00,0.00,0.00,0.00,0.00,0.00,0.00,0.00,0.00,0.00,0.00,0.00,0.00,0.00,0.00,0.00,0.00,0.00,0.00,0.00,0.00,0.00,0.00,0.00,0.00,0.00,0.00,0.00,0.00,0.00,0.00,0.00,0.00,0.00,0.00,0.00,0.00,0.00,0.00,0.00,0.00,0.00,0.00,0.00,0.00,0.00,0.00,0.00,0.00,0.00,0.00,0.00,659.50,669.43,674.91,672.96,670.11,667.93,664.66,662.16,659.82,658.91,653.18,640.44,621.75,609.31,611.51,621.43,630.06,633.32,633.65,630.27,624.84,619.78,618.03,618.00,617.18,614.89,613.17,610.72,609.99,607.81,606.95,606.65,606.76,604.70,601.98,599.74,598.55,596.40,597.40,597.55,597.27,593.86,593.32,592.59,591.58,587.70,586.24,585.23,584.41,582.29,581.32,579.70,577.72,573.96,572.46,568.79,566.59,564.79,564.86,563.62,560.30,557.82,554.87,555.10,552.77,553.54,552.51,553.40,552.01,551.26,0.00,547.36,546.36,546.94,0.00,545.18,0.00,0.00,0.00,0.00,0.00,0.00,0.00,0.00,542.82,542.83,0.00,0.00,0.00,541.46,540.36,540.60,543.05,544.61,545.57,548.46,551.80,554.88,563.30,570.32,578.69,583.41,590.07,592.32,592.73,593.28,0.00,0.00,0.00,0.00,0.00,0.00,0.00,0.00,0.00,0.00,0.00,0.00,0.00,0.00,0.00,0.00,0.00,0.00,0.00,0.00,0.00,0.00,0.00,0.00,0.00,0.00,0.00,0.00,0.00,0.00,0.00,0.00,0.00,0.00,0.00,0.00,0.00,0.00,0.00,0.00,0.00,578.30,578.03,580.22,577.38,574.30,565.64,558.23,551.55,547.20,0.00,0.00,0.00,0.00,0.00,0.00,0.00,0.00,0.00,0.00,0.00,0.00,0.00,543.14,554.74,571.87,586.22,0.00,0.00,0.00,603.75,0.00,0.00,609.49,611.65,613.85,615.73,615.31,612.76,606.01,599.20,595.22,594.52,592.31,589.68,585.74,585.72,584.97,585.55,582.50,581.83,581.23,582.45,582.07,581.89,580.68,578.54,575.79,572.64,571.04,567.88,564.67,562.03,562.12,563.95,562.66,561.18,558.97,554.84,551.68,547.78,545.67,539.68,532.84,530.87,526.05,520.15,509.81,500.38,0.00,0.00,0.00,0.00,0.00,0.00,0.00,0.00,0.00,0.00,0.00,0.00,0.00,0.00,0.00,0.00,0.00,0.00,0.00,0.00,0.00,0.00,0.00,0.00,0.00,0.00,0.00,0.00,0.00,0.00,0.00,0.00,0.00,0.00,0.00,0.00,0.00,0.00,0.00,0.00,0.00,0.00,0.00,0.00,0.00
0.00,0.00,0.00,0.00,0.00,0.00,0.00,0.00,0.00,0.00,0.00,0.00,0.00,0.00,0.00,0.00,0.00,0.00,0.00,0.00,0.00,0.00,0.00,0.00,0.00,0.00,0.00,0.00,0.00,0.00,0.00,0.00,0.00,0.00,0.00,0.00,0.00,0.00,0.00,0.00,0.00,0.00,0.00,0.00,0.00,0.00,0.00,0.00,0.00,0.00,0.00,0.00,0.00,0.00,0.00,0.00,0.00,0.00,0.00,0.00,0.00,0.00,0.00,0.00,0.00,0.00,0.00,0.00,0.00,0.00,0.00,0.00,0.00,0.00,0.00,0.00,0.00,0.00,0.00,0.00,0.00,0.00,0.00,0.00,0.00,0.00,0.00,0.00,0.00,0.00,544.12,561.09,572.38,577.73,581.28,581.50,582.35,582.56,585.98,588.83,591.80,591.47,594.07,594.66,597.16,595.91,597.21,598.97,601.13,602.50,601.01,599.63,598.02,597.79,598.45,598.76,600.87,601.52,603.07,602.64,605.32,607.25,611.12,613.01,613.09,610.38,600.16,590.76,588.13,591.77,593.72,588.94,585.86,581.25,576.21,569.82,568.47,567.95,569.06,560.42,0.00,0.00,0.00,0.00,0.00,0.00,0.00,0.00,0.00,0.00,0.00,0.00,0.00,0.00,0.00,0.00,0.00,0.00,0.00,0.00,0.00,0.00,0.00,0.00,0.00,0.00,0.00,0.00,0.00,0.00,0.00,0.00,0.00,0.00,0.00,0.00,0.00,0.00,0.00,0.00,0.00,0.00,0.00,0.00,0.00,0.00,0.00,0.00,0.00,0.00,0.00,0.00,0.00,0.00,0.00,0.00,0.00,0.00,0.00,0.00,0.00,0.00,0.00,0.00,0.00,0.00,0.00,0.00,0.00,0.00,0.00,0.00,0.00,0.00,0.00,0.00,0.00,0.00,0.00,0.00,0.00,0.00,0.00,0.00,0.00,0.00,0.00,650.11,658.24,662.35,664.03,661.11,658.98,655.84,653.73,646.61,626.67,590.65,550.86,555.06,596.02,619.15,627.54,625.93,622.13,618.18,615.41,614.10,613.44,611.86,610.02,608.32,607.02,607.34,606.13,605.40,0.00,603.67,601.15,598.67,598.19,596.83,593.82,593.88,592.81,592.27,588.69,0.00,589.82,590.64,587.07,585.53,584.69,583.93,581.52,579.84,577.52,574.79,571.06,570.75,567.78,565.89,563.42,563.57,561.88,558.78,556.39,554.23,552.94,549.48,0.00,549.84,551.15,548.78,0.00,0.00,0.00,0.00,0.00,0.00,0.00,0.00,0.00,0.00,0.00,0.00,0.00,0.00,0.00,0.00,0.00,0.00,0.00,0.00,0.00,536.30,0.00,0.00,0.00,538.57,0.00,540.88,542.38,546.18,550.91,557.18,562.32,573.32,581.57,585.49,588.26,0.00,0.00,589.15,0.00,0.00,0.00,0.00,0.00,0.00,0.00,0.00,0.00,0.00,0.00,0.00,0.00,0.00,0.00,0.00,0.00,0.00,0.00,0.00,0.00,0.00,0.00,0.00,0.00,0.00,0.00,0.00,0.00,0.00,0.00,0.00,0.00,0.00,0.00,0.00,0.00,0.00,573.97,574.24,576.89,572.82,570.09,561.57,555.05,0.00,0.00,0.00,0.00,0.00,0.00,0.00,0.00,0.00,0.00,0.00,0.00,0.00,0.00,0.00,0.00,548.14,566.76,582.59,0.00,0.00,0.00,601.96,605.57,607.11,609.91,613.10,614.66,612.14,605.24,599.90,592.84,586.25,581.45,580.51,579.92,577.29,574.01,572.92,572.55,572.73,571.77,572.89,574.53,576.62,577.50,577.83,577.59,576.43,574.66,570.88,567.96,564.90,562.30,560.08,560.51,562.06,560.97,556.81,553.98,549.75,546.76,541.10,536.69,531.29,525.49,524.73,517.95,513.67,504.74,0.00,0.00,0.00,0.00,0.00,0.00,0.00,0.00,0.00,0.00,0.00,0.00,0.00,0.00,0.00,0.00,0.00,0.00,0.00,0.00,0.00,0.00,0.00,0.00,0.00,0.00,0.00,0.00,0.00,0.00,0.00,0.00,0.00,0.00,0.00,0.00,0.00,0.00,0.00,0.00,0.00,0.00,0.00,0.00,0.00,0.00
0.00,0.00,0.00,0.00,0.00,0.00,0.00,0.00,0.00,0.00,0.00,0.00,0.00,0.00,0.00,0.00,0.00,0.00,0.00,0.00,0.00,0.00,0.00,0.00,0.00,0.00,0.00,0.00,0.00,0.00,0.00,0.00,0.00,0.00,0.00,0.00,0.00,0.00,0.00,0.00,0.00,0.00,0.00,0.00,0.00,0.00,0.00,0.00,0.00,0.00,0.00,0.00,0.00,0.00,0.00,0.00,0.00,0.00,0.00,0.00,0.00,0.00,0.00,0.00,0.00,0.00,0.00,0.00,0.00,0.00,0.00,0.00,0.00,0.00,0.00,0.00,0.00,0.00,0.00,0.00,0.00,0.00,0.00,0.00,0.00,0.00,0.00,0.00,526.28,554.10,564.31,571.76,576.33,579.93,580.35,581.15,580.89,583.14,585.84,589.42,592.36,593.05,594.68,595.14,596.45,596.48,597.76,597.84,597.82,599.02,599.72,598.81,597.28,597.22,599.21,598.91,601.03,601.26,603.49,605.22,607.35,609.85,611.07,615.48,616.49,615.51,606.88,600.68,600.74,607.68,610.90,613.01,612.47,610.69,606.61,596.67,590.18,580.68,571.72,543.12,0.00,0.00,0.00,0.00,0.00,0.00,0.00,0.00,0.00,0.00,0.00,0.00,0.00,0.00,0.00,0.00,0.00,0.00,0.00,0.00,0.00,0.00,0.00,0.00,0.00,0.00,0.00,0.00,0.00,0.00,0.00,0.00,0.00,0.00,0.00,0.00,0.00,0.00,0.00,0.00,0.00,0.00,0.00,0.00,0.00,0.00,0.00,0.00,0.00,0.00,0.00,0.00,0.00,0.00,0.00,0.00,0.00,0.00,0.00,0.00,0.00,0.00,0.00,0.00,0.00,0.00,0.00,0.00,0.00,0.00,0.00,0.00,0.00,0.00,0.00,0.00,0.00,0.00,0.00,0.00,0.00,0.00,0.00,0.00,0.00,0.00,0.00,0.00,0.00,639.01,649.44,655.62,655.80,652.14,648.31,640.45,0.00,552.91,506.86,511.48,569.26,609.09,621.07,620.33,617.27,616.59,613.76,613.57,610.80,610.61,608.06,608.60,607.46,609.28,606.91,606.86,605.55,604.40,0.00,600.22,599.28,597.47,594.75,595.80,594.53,593.78,590.88,591.04,590.66,590.21,588.12,587.47,585.85,584.24,581.53,581.05,579.68,577.26,573.83,573.25,570.77,568.52,565.29,564.74,564.30,561.99,558.52,555.83,554.07,551.91,551.23,0.00,0.00,550.30,549.62,0.00,0.00,0.00,0.00,0.00,0.00,0.00,0.00,540.93,0.00,0.00,0.00,0.00,0.00,0.00,0.00,0.00,0.00,0.00,0.00,0.00,0.00,0.00,539.79,0.00,541.70,540.96,540.42,541.66,0.00,546.51,548.48,555.43,561.42,568.68,573.70,580.34,0.00,586.85,0.00,0.00,0.00,0.00,0.00,0.00,0.00,0.00,0.00,0.00,0.00,0.00,0.00,0.00,0.00,0.00,0.00,0.00,0.00,0.00,0.00,0.00,0.00,0.00,0.00,0.00,0.00,0.00,0.00,0.00,0.00,0.00,0.00,0.00,0.00,0.00,0.00,0.00,575.00,576.06,577.80,572.98,568.87,561.88,556.82,0.00,0.00,0.00,0.00,0.00,0.00,0.00,0.00,0.00,0.00,0.00,0.00,0.00,0.00,0.00,0.00,546.47,564.65,581.79,0.00,0.00,600.46,0.00,607.36,609.48,613.11,614.94,611.88,604.88,595.80,590.28,584.08,578.47,573.15,570.96,569.73,567.08,564.41,562.20,561.14,560.54,560.74,563.18,564.82,566.45,568.36,571.42,573.72,573.36,571.24,568.54,565.33,562.43,559.76,559.14,559.67,561.27,559.41,555.22,551.39,548.64,545.24,541.35,534.63,529.82,524.49,522.55,515.93,508.56,0.00,0.00,0.00,0.00,0.00,0.00,0.00,0.00,0.00,0.00,0.00,0.00,0.00,0.00,0.00,0.00,0.00,0.00,0.00,0.00,0.00,0.00,0.00,0.00,0.00,0.00,0.00,0.00,0.00,0.00,0.00,0.00,0.00,0.00,0.00,0.00,0.00,0.00,0.00,0.00,0.00,0.00,0.00,0.00,0.00,0.00,0.00
0.00,0.00,0.00,0.00,0.00,0.00,0.00,0.00,0.00,0.00,0.00,0.00,0.00,0.00,0.00,0.00,0.00,0.00,0.00,0.00,0.00,0.00,0.00,0.00,0.00,0.00,0.00,0.00,0.00,0.00,0.00,0.00,0.00,0.00,0.00,0.00,0.00,0.00,0.00,0.00,0.00,0.00,0.00,0.00,0.00,0.00,0.00,0.00,0.00,0.00,0.00,0.00,0.00,0.00,0.00,0.00,0.00,0.00,0.00,0.00,0.00,0.00,0.00,0.00,0.00,0.00,0.00,0.00,0.00,0.00,0.00,0.00,0.00,0.00,0.00,0.00,0.00,0.00,0.00,0.00,0.00,0.00,0.00,0.00,0.00,0.00,0.00,526.53,544.34,553.61,561.59,567.42,569.89,571.34,570.93,572.68,574.94,577.71,581.02,585.07,589.88,591.95,592.85,592.28,592.25,592.56,595.26,596.01,596.00,596.46,597.07,596.97,595.98,595.28,597.32,597.24,600.09,599.61,601.99,604.88,608.26,610.66,613.02,617.36,619.74,618.18,613.30,605.88,603.69,607.65,613.54,619.17,622.29,622.53,619.94,608.85,601.71,587.64,564.84,0.00,0.00,0.00,0.00,0.00,0.00,0.00,0.00,0.00,0.00,0.00,0.00,0.00,0.00,0.00,0.00,0.00,0.00,0.00,0.00,0.00,0.00,0.00,0.00,0.00,0.00,0.00,0.00,0.00,0.00,0.00,0.00,0.00,0.00,0.00,0.00,0.00,0.00,0.00,0.00,0.00,0.00,0.00,0.00,0.00,0.00,0.00,0.00,0.00,0.00,0.00,0.00,0.00,0.00,0.00,0.00,0.00,0.00,0.00,0.00,0.00,0.00,0.00,0.00,0.00,0.00,0.00,0.00,0.00,0.00,0.00,0.00,0.00,0.00,0.00,0.00,0.00,0.00,0.00,0.00,0.00,0.00,0.00,0.00,0.00,0.00,0.00,0.00,0.00,0.00,0.00,0.00,630.27,640.42,643.03,640.96,630.94,0.00,0.00,0.00,0.00,0.00,0.00,604.79,608.40,610.11,610.94,609.77,608.54,606.13,606.73,605.52,605.34,604.14,604.41,603.27,602.93,603.16,601.33,0.00,598.61,598.08,595.52,592.76,591.76,590.42,589.49,589.70,588.49,588.50,586.67,585.80,584.36,583.96,582.19,581.21,580.56,579.83,577.04,573.55,570.67,568.02,565.42,563.50,561.99,561.93,560.08,556.59,0.00,552.92,552.54,0.00,0.00,0.00,546.47,547.60,0.00,0.00,0.00,0.00,0.00,0.00,0.00,0.00,0.00,0.00,0.00,0.00,0.00,0.00,537.22,0.00,0.00,0.00,0.00,0.00,0.00,0.00,537.16,538.56,0.00,538.33,536.70,536.62,536.83,0.00,0.00,541.15,543.08,0.00,0.00,555.86,563.82,568.79,571.79,0.00,0.00,0.00,0.00,0.00,0.00,0.00,0.00,0.00,0.00,0.00,0.00,0.00,0.00,0.00,0.00,0.00,0.00,0.00,0.00,0.00,0.00,0.00,0.00,0.00,0.00,0.00,0.00,0.00,0.00,0.00,0.00,0.00,0.00,0.00,0.00,0.00,0.00,571.86,574.01,576.17,570.87,565.07,557.60,552.79,0.00,0.00,0.00,0.00,0.00,0.00,0.00,0.00,0.00,0.00,0.00,0.00,0.00,0.00,0.00,0.00,543.40,559.98,575.93,0.00,0.00,0.00,599.98,605.30,608.15,611.81,610.24,601.81,592.53,584.40,580.74,574.42,566.79,558.24,551.93,549.30,545.50,544.78,543.51,541.96,541.70,543.75,548.75,550.94,552.70,554.67,558.00,561.67,562.33,562.39,561.40,559.89,557.95,556.34,556.53,556.72,555.97,553.45,548.79,545.31,542.56,539.03,535.52,530.87,528.14,522.48,517.59,509.75,505.33,0.00,0.00,0.00,0.00,0.00,0.00,0.00,0.00,0.00,0.00,0.00,0.00,0.00,0.00,0.00,0.00,0.00,0.00,0.00,0.00,0.00,0.00,0.00,0.00,0.00,0.00,0.00,0.00,0.00,0.00,0.00,0.00,0.00,0.00,0.00,0.00,0.00,0.00,0.00,0.00,0.00,0.00,0.00,0.00,0.00,0.00,0.00
0.00,0.00,0.00,0.00,0.00,0.00,0.00,0.00,0.00,0.00,0.00,0.00,0.00,0.00,0.00,0.00,0.00,0.00,0.00,0.00,0.00,0.00,0.00,0.00,0.00,0.00,0.00,0.00,0.00,0.00,0.00,0.00,0.00,0.00,0.00,0.00,0.00,0.00,0.00,0.00,0.00,0.00,0.00,0.00,0.00,0.00,0.00,0.00,0.00,0.00,0.00,0.00,0.00,0.00,0.00,0.00,0.00,0.00,0.00,0.00,0.00,0.00,0.00,0.00,0.00,0.00,0.00,0.00,0.00,0.00,0.00,0.00,0.00,0.00,0.00,0.00,0.00,0.00,0.00,0.00,0.00,0.00,0.00,0.00,0.00,0.00,509.57,526.71,537.17,543.14,548.57,551.78,553.54,554.07,553.56,556.46,559.66,563.92,567.03,570.86,576.37,581.31,582.65,581.23,581.25,584.70,589.43,591.52,591.56,592.98,593.57,594.43,593.93,594.09,595.68,595.93,598.19,599.02,601.93,605.20,607.84,611.09,614.29,619.54,621.64,621.78,619.99,617.74,615.82,614.26,614.91,618.80,623.10,625.18,622.63,616.75,608.05,587.21,0.00,0.00,0.00,0.00,0.00,0.00,0.00,0.00,0.00,0.00,0.00,0.00,0.00,0.00,0.00,0.00,0.00,0.00,0.00,0.00,0.00,0.00,0.00,0.00,0.00,0.00,0.00,0.00,0.00,0.00,0.00,0.00,0.00,0.00,0.00,0.00,0.00,0.00,0.00,0.00,0.00,0.00,0.00,0.00,0.00,0.00,0.00,0.00,0.00,0.00,0.00,0.00,0.00,0.00,0.00,0.00,0.00,0.00,0.00,0.00,0.00,0.00,0.00,0.00,0.00,0.00,0.00,0.00,0.00,0.00,0.00,0.00,0.00,0.00,0.00,0.00,0.00,0.00,0.00,0.00,0.00,0.00,0.00,0.00,0.00,0.00,0.00,0.00,0.00,0.00,0.00,0.00,0.00,0.00,0.00,620.52,623.73,612.17,0.00,0.00,0.00,0.00,0.00,0.00,0.00,586.79,597.44,602.61,604.13,605.28,606.55,608.73,607.94,606.86,604.55,604.33,602.48,602.53,602.55,602.41,600.61,599.84,597.37,595.92,594.04,593.47,592.66,591.74,592.72,590.39,589.22,587.62,586.76,586.10,585.70,584.83,583.47,583.06,582.90,581.24,578.45,573.50,570.35,567.76,565.45,563.41,562.75,562.64,560.32,0.00,556.27,555.21,0.00,0.00,0.00,549.59,549.40,0.00,0.00,0.00,542.92,0.00,540.22,540.18,540.13,0.00,0.00,0.00,0.00,0.00,0.00,0.00,0.00,530.90,531.72,0.00,533.72,0.00,0.00,537.45,537.23,536.60,534.97,536.25,536.60,537.97,538.60,538.94,540.29,540.45,541.57,543.14,547.56,552.26,555.87,559.16,565.53,574.21,580.66,0.00,0.00,0.00,0.00,0.00,0.00,0.00,0.00,0.00,0.00,0.00,0.00,0.00,0.00,0.00,0.00,0.00,0.00,0.00,0.00,0.00,0.00,0.00,0.00,0.00,0.00,0.00,0.00,0.00,0.00,0.00,0.00,0.00,0.00,570.78,573.87,576.28,577.76,572.36,565.97,557.99,553.39,0.00,0.00,0.00,0.00,0.00,0.00,0.00,0.00,0.00,0.00,0.00,0.00,0.00,0.00,0.00,0.00,544.29,557.57,574.02,584.30,0.00,0.00,599.04,606.16,610.84,611.59,605.84,595.61,587.45,580.58,573.91,562.53,548.99,539.18,531.65,525.89,520.55,520.34,521.29,521.13,521.18,525.64,534.18,538.69,541.25,543.48,545.31,547.55,548.29,550.64,552.59,553.65,553.49,553.03,554.35,555.30,555.45,553.96,549.26,545.29,540.55,536.41,533.47,530.45,528.72,523.57,516.13,506.34,500.70,0.00,0.00,0.00,0.00,0.00,0.00,0.00,0.00,0.00,0.00,0.00,0.00,0.00,0.00,0.00,0.00,0.00,0.00,0.00,0.00,0.00,0.00,0.00,0.00,0.00,0.00,0.00,0.00,0.00,0.00,0.00,0.00,0.00,0.00,0.00,0.00,0.00,0.00,0.00,0.00,0.00,0.00,0.00,0.00,0.00,0.00,0.00
