0.00,0.00,0.00,0.00,0.00,0.00,0.00,0.00,0.00,0.00,0.00,0.00,0.00,0.00,0.00,0.00,0.00,0.00,0.00,0.00,0.00,1621.30,1638.01,1643.94,1644.48,1644.30,1645.34,1649.28,1648.23,1647.85,1646.03,1647.70,1648.55,1650.03,1651.40,1652.33,1650.40,1649.95,1650.56,1653.37,1654.72,1656.08,1656.53,1657.37,1656.33,1654.69,1653.57,1654.73,1654.83,1655.68,1656.72,1658.27,1656.71,1655.20,1655.22,1656.79,1657.80,1658.17,1657.77,1656.87,1656.82,1657.57,1658.94,1659.03,1659.17,1658.57,1657.70,1656.49,1657.07,1658.60,1660.44,1661.42,1661.25,1659.09,1658.18,1658.36,1660.12,1659.96,1660.02,1659.38,1658.72,1659.25,1659.53,1659.90,1658.30,1657.26,1655.35,1656.05,1655.72,1654.97,1651.11,1644.92,0.00,0.00,0.00,0.00,0.00,0.00,0.00,0.00,0.00,0.00,0.00,0.00,0.00,0.00,0.00,0.00,0.00,0.00,0.00,0.00,0.00,0.00,0.00,0.00,0.00,0.00,0.00,0.00,0.00,0.00,0.00,0.00,0.00,0.00,0.00,0.00,0.00,1661.70,1672.30,1675.96,1678.80,1681.56,1683.97,1685.50,1685.05,1685.55,1686.01,1688.71,1691.61,1692.63,1692.22,1692.47,1694.35,1695.90,1697.19,1697.99,1697.62,1697.73,1697.55,1698.18,1698.55,1700.58,1703.39,1705.11,1704.15,1704.12,1705.33,1707.15,1708.13,1708.32,1709.39,1709.48,1710.28,1710.45,1711.26,1710.80,1711.35,1712.36,1714.09,1715.70,1716.24,1717.16,1717.48,1717.92,1719.28,1719.81,1720.93,1720.45,1720.78,1721.70,1723.89,1726.26,1727.32,1728.38,1730.29,1733.52,1737.33,1743.48,1752.02,0.00,0.00,0.00,0.00,0.00,0.00,0.00,0.00,0.00,683.34,706.17,714.89,719.96,721.67,722.78,721.62,722.02,719.77,720.88,720.48,722.86,723.11,723.12,721.63,719.49,718.23,716.18,715.53,713.35,712.63,710.41,709.76,709.16,710.05,710.81,709.95,710.22,708.86,708.08,705.90,704.19,701.45,700.85,701.70,702.61,700.30,698.58,697.64,697.19,696.55,695.64,695.93,698.06,701.24,704.43,706.56,709.92,710.87,712.07,712.90,716.99,719.81,720.98,722.99,725.84,730.08,731.08,732.19,733.59,735.98,740.35,744.26,747.81,748.57,748.92,744.42,740.88,737.66,736.44,728.97,720.51,710.80,702.45,695.03,691.11,689.13,686.37,684.96,682.33,679.66,675.76,673.96,673.08,672.29,671.45,670.55,670.73,672.15,674.05,674.38,674.74,673.12,672.79,672.36,673.63,674.36,675.92,677.33,678.75,678.46,678.54,679.58,681.83,684.70,686.34,687.08,687.44,687.11,688.27,689.42,692.56,693.68,696.41,699.33,702.15,704.59,708.50,714.07,717.48,717.96,718.22,718.08,717.32,717.07,717.59,719.38,721.55,725.10,728.31,737.56,768.11,789.21,795.84,797.12,797.43,795.66,794.17,792.68,792.83,792.56,792.48,791.71,789.68,787.99,786.85,787.06,785.34,783.85,781.97,781.13,779.90,777.48,775.09,772.30,769.64,766.72,761.67,760.06,763.01,767.13,769.65,769.72,763.70,749.83,741.17,739.72,739.68,739.19,738.94,738.39,738.09,736.07,734.16,731.83,731.32,731.00,728.67,725.89,723.71,722.50,719.81,714.34,705.54,695.87,685.66,679.25,673.03,667.76,0.00,0.00,0.00,0.00,0.00,0.00,0.00,0.00,0.00,0.00,0.00,0.00,0.00,0.00,0.00,0.00,0.00,0.00,0.00,0.00,0.00,0.00,0.00,0.00,0.00,0.00,0.00,0.00,0.00,0.00,0.00,0.00,0.00,0.00,0.00,0.00,0.00,0.00,0.00,0.00,0.00,0.00,0.00,0.00,0.00,0.00,0.00,0.00,0.00,0.00,0.00,0.00,0.00,0.00,0.00,0.00,0.00,0.00,0.00,0.00,0.00,0.00,0.00,0.00,0.00,0.00,0.00,0.00,0.00,0.00,0.00,0.00,0.00,0.00,0.00,0.00,0.00,0.00,0.00,0.00,0.00,0.00,0.00,0.00,0.00,0.00,0.00,0.00,0.00,0.00,0.00,0.00,0.00,0.00,0.00,0.00,0.00,0.00,0.00,0.00,0.00,0.00,0.00,0.00,0.00,0.00
0.00,0.00,0.00,0.00,0.00,0.00,0.00,0.00,0.00,0.00,0.00,0.00,0.00,0.00,0.00,0.00,0.00,0.00,0.00,0.00,0.00,1612.75,1635.14,1642.79,1644.47,1644.68,1646.83,1650.94,1651.60,1649.23,1648.07,1649.11,1649.49,1650.95,1651.03,1652.36,1650.26,1650.46,1651.57,1652.61,1655.16,1655.87,1656.46,1655.56,1656.05,1655.34,1656.06,1657.08,1657.51,1657.38,1658.92,1659.49,1657.22,1654.40,1654.06,1656.07,1656.92,1657.53,1657.35,1657.27,1658.17,1659.14,1660.39,1659.81,1659.61,1659.13,1657.94,1657.29,1657.67,1659.49,1659.93,1661.56,1662.10,1661.57,1661.01,1660.48,1660.51,1659.57,1660.22,1661.02,1660.38,1660.31,1660.63,1661.52,1660.23,1659.21,1657.49,1657.67,1658.33,1658.52,1657.35,1652.71,1646.59,0.00,0.00,0.00,0.00,0.00,0.00,0.00,0.00,0.00,0.00,0.00,0.00,0.00,0.00,0.00,0.00,0.00,0.00,0.00,0.00,0.00,0.00,0.00,0.00,0.00,0.00,0.00,0.00,0.00,0.00,0.00,0.00,0.00,0.00,0.00,0.00,0.00,1662.78,1670.74,1675.85,1680.91,1685.50,1687.08,1685.96,1685.39,1686.62,1689.19,1691.94,1692.10,1692.03,1691.78,1694.40,1695.84,1697.76,1697.72,1697.26,1696.14,1696.01,1697.75,1699.72,1701.32,1702.10,1703.87,1704.13,1705.12,1705.79,1707.30,1708.79,1709.63,1710.25,1710.05,1710.55,1710.82,1710.91,1710.87,1711.49,1713.58,1714.72,1716.20,1716.15,1716.70,1717.81,1718.48,1719.54,1720.26,1721.41,1721.92,1721.98,1723.11,1725.27,1727.91,1729.30,1730.83,1734.13,1739.81,1745.79,1755.91,0.00,0.00,0.00,0.00,0.00,0.00,0.00,0.00,626.15,694.70,710.13,716.84,722.58,724.52,724.55,723.27,722.72,722.97,722.15,721.86,721.42,722.82,723.15,722.02,720.23,718.54,719.06,718.27,716.67,713.85,712.63,711.79,711.94,711.21,711.03,710.49,710.52,711.83,710.68,709.27,706.28,704.71,701.23,700.18,700.81,701.89,700.07,698.27,696.41,696.13,695.03,693.99,693.85,695.61,699.47,703.61,705.04,707.00,706.87,711.36,713.39,718.05,719.54,720.46,723.00,725.44,729.58,730.80,732.94,734.19,736.00,739.88,745.02,748.48,748.49,747.62,744.45,740.20,737.31,735.99,733.95,726.13,716.34,707.56,701.52,696.62,693.12,689.72,689.23,686.57,683.29,678.80,677.37,677.12,677.29,676.52,675.13,675.16,675.18,676.09,675.80,675.75,675.17,674.83,675.14,675.90,676.77,678.74,680.81,681.82,681.97,682.24,684.34,686.45,689.27,690.07,689.85,689.27,689.04,691.71,693.47,697.22,697.91,700.69,703.01,705.55,709.04,713.79,718.10,717.94,716.43,717.27,718.05,719.00,719.80,720.97,722.68,723.71,727.96,730.82,740.63,769.39,791.78,799.07,800.11,800.53,798.45,796.73,795.82,796.07,796.06,794.83,793.20,791.57,790.48,788.70,787.60,785.63,785.09,782.92,782.39,780.08,777.46,773.38,771.24,767.78,763.19,755.70,751.72,755.69,762.42,768.22,766.18,756.44,744.66,738.84,738.63,739.65,739.78,740.03,738.36,737.23,734.76,733.48,733.66,734.02,733.90,729.70,726.57,723.59,723.49,722.45,718.56,713.52,707.04,701.19,696.92,693.09,689.56,682.31,671.54,0.00,0.00,0.00,0.00,0.00,0.00,0.00,0.00,0.00,0.00,0.00,0.00,0.00,0.00,0.00,0.00,0.00,0.00,0.00,0.00,0.00,0.00,0.00,0.00,0.00,0.00,0.00,0.00,0.00,0.00,0.00,0.00,0.00,0.00,0.00,0.00,0.00,0.00,0.00,0.00,0.00,0.00,0.00,0.00,0.00,0.00,0.00,0.00,0.00,0.00,0.00,0.00,0.00,0.00,0.00,0.00,0.00,0.00,0.00,0.00,0.00,0.00,0.00,0.00,0.00,0.00,0.00,0.00,0.00,0.00,0.00,0.00,0.00,0.00,0.00,0.00,0.00,0.00,0.00,0.00,0.00,0.00,0.00,0.00,0.00,0.00,0.00,0.00,0.00,0.00,0.00,0.00,0.00,0.00,0.00,0.00,0.00,0.00,0.00,0.00,0.00,0.00,0.00,0.00
0.00,0.00,0.00,0.00,0.00,0.00,0.00,0.00,0.00,0.00,0.00,0.00,0.00,0.00,0.00,0.00,0.00,0.00,0.00,0.00,0.00,1603.55,1628.77,1639.74,1641.91,1643.07,1644.41,1648.36,1649.23,1649.57,1649.14,1649.88,1647.92,1648.61,1649.65,1651.90,1649.83,1650.54,1651.08,1652.03,1653.43,1654.14,1655.35,1654.25,1654.21,1652.02,1652.55,1654.24,1654.80,1654.64,1654.70,1655.84,1654.11,1652.96,1652.56,1655.09,1654.81,1656.30,1655.68,1656.42,1655.90,1656.67,1656.91,1655.98,1655.36,1655.48,1654.87,1655.24,1655.74,1657.88,1657.70,1659.62,1660.43,1660.19,1659.96,1659.66,1658.98,1658.56,1659.84,1662.12,1661.48,1659.72,1658.78,1659.48,1658.78,1659.75,1658.04,1657.81,1655.92,1656.27,1655.79,1653.46,1650.67,1645.26,0.00,0.00,0.00,0.00,0.00,0.00,0.00,0.00,0.00,0.00,0.00,0.00,0.00,0.00,0.00,0.00,0.00,0.00,0.00,0.00,0.00,0.00,0.00,0.00,0.00,0.00,0.00,0.00,0.00,0.00,0.00,0.00,0.00,0.00,0.00,0.00,0.00,1656.35,1666.87,1674.37,1680.99,1683.46,1683.38,1683.62,1684.46,1685.93,1687.53,1687.56,1688.83,1689.27,1692.32,1693.51,1694.08,1693.31,1693.15,1693.70,1694.35,1696.66,1698.49,1699.62,1699.84,1701.76,1703.85,1704.62,1705.16,1705.28,1706.01,1706.20,1706.98,1707.59,1708.34,1709.02,1708.69,1708.51,1708.28,1710.42,1711.91,1713.82,1714.41,1714.61,1715.83,1715.84,1716.97,1717.24,1719.25,1720.19,1721.63,1722.10,1723.95,1725.24,1727.41,1729.57,1735.57,1743.67,1758.60,0.00,0.00,0.00,0.00,0.00,0.00,0.00,0.00,672.78,706.13,713.04,716.57,719.67,721.34,722.68,722.00,720.67,719.47,719.83,719.56,720.04,718.79,720.19,719.18,718.84,717.19,717.18,717.52,716.35,713.88,711.81,710.71,710.16,708.73,708.40,707.37,707.80,705.46,706.71,704.33,704.71,701.58,700.55,696.52,695.77,695.32,695.80,694.32,693.61,693.06,693.17,691.51,690.98,690.67,692.29,693.72,696.48,699.24,700.36,701.52,705.69,708.81,712.91,714.22,716.16,718.48,720.70,723.31,725.44,727.91,731.34,733.01,737.65,741.75,746.12,745.32,744.21,741.12,737.44,733.73,731.15,730.50,725.29,716.18,708.43,702.94,698.15,692.29,687.71,686.20,684.55,681.42,678.26,676.49,676.76,675.99,675.14,673.45,673.86,674.12,674.04,674.05,672.93,672.50,671.67,673.32,674.64,676.00,677.89,678.98,679.08,679.36,680.63,682.53,685.03,687.48,689.06,687.32,687.93,688.16,691.91,693.97,698.06,698.72,701.00,702.51,705.56,708.62,712.75,714.21,714.04,713.43,714.30,714.45,715.76,717.77,719.34,720.18,721.26,725.40,728.82,737.58,763.77,788.80,797.34,798.66,799.18,797.39,796.45,795.31,795.48,795.20,792.75,790.16,788.36,787.60,786.58,785.12,783.54,782.14,778.92,778.34,775.75,774.02,769.56,766.52,758.08,748.12,740.78,738.34,740.00,748.72,757.56,754.61,744.55,736.04,732.85,732.77,734.22,735.07,736.28,734.84,733.04,730.57,730.11,731.31,731.48,730.14,726.10,722.60,719.64,719.76,719.25,717.39,712.98,707.94,703.21,700.25,697.87,697.29,695.25,689.24,678.68,0.00,0.00,0.00,0.00,0.00,0.00,0.00,0.00,0.00,0.00,0.00,0.00,0.00,0.00,0.00,0.00,0.00,0.00,0.00,0.00,0.00,0.00,0.00,0.00,0.00,0.00,0.00,0.00,0.00,0.00,0.00,0.00,0.00,0.00,0.00,0.00,0.00,0.00,0.00,0.00,0.00,0.00,0.00,0.00,0.00,0.00,0.00,0.00,0.00,0.00,0.00,0.00,0.00,0.00,0.00,0.00,0.00,0.00,0.00,0.00,0.00,0.00,0.00,0.00,0.00,0.00,0.00,0.00,0.00,0.00,0.00,0.00,0.00,0.00,0.00,0.00,0.00,0.00,0.00,0.00,0.00,0.00,0.00,0.00,0.00,0.00,0.00,0.00,0.00,0.00,0.00,0.00,0.00,0.00,0.00,0.00,0.00,0.00,0.00,0.00,0.00,0.00,0.00
0.00,0.00,0.00,0.00,0.00,0.00,0.00,0.00,0.00,0.00,0.00,0.00,0.00,0.00,0.00,0.00,0.00,0.00,0.00,0.00,0.00,1590.44,1622.66,1636.95,1641.43,1642.87,1645.77,1648.39,1649.92,1650.82,1651.93,1651.74,1649.04,1648.33,1649.00,1650.85,1650.32,1651.32,1652.03,1651.94,1653.68,1654.95,1655.67,1653.63,1653.70,1652.71,1653.35,1654.41,1656.16,1656.13,1656.87,1655.63,1654.59,1653.39,1654.48,1656.11,1656.78,1656.90,1656.77,1656.32,1656.60,1656.99,1656.72,1655.42,1656.00,1656.14,1656.70,1656.41,1656.71,1658.30,1658.98,1661.25,1661.70,1661.16,1662.57,1662.15,1661.49,1659.86,1661.79,1662.82,1662.37,1659.94,1659.30,1659.41,1659.19,1660.07,1659.16,1658.34,1656.68,1657.44,1657.57,1656.51,1654.36,1650.71,1644.87,0.00,0.00,0.00,0.00,0.00,0.00,0.00,0.00,0.00,0.00,0.00,0.00,0.00,0.00,0.00,0.00,0.00,0.00,0.00,0.00,0.00,0.00,0.00,0.00,0.00,0.00,0.00,0.00,0.00,0.00,0.00,0.00,0.00,0.00,0.00,0.00,0.00,1650.11,1666.45,1675.18,1680.93,1682.77,1684.66,1685.18,1686.31,1687.27,1688.74,1689.20,1690.05,1692.51,1693.65,1692.87,1692.07,1693.22,1695.16,1695.57,1697.01,1698.30,1699.27,1699.63,1700.67,1702.41,1703.75,1705.61,1706.06,1705.61,1706.32,1707.70,1709.87,1710.41,1710.66,1710.12,1710.17,1711.13,1712.71,1713.65,1714.93,1715.75,1715.43,1716.55,1716.73,1718.67,1718.25,1720.22,1721.62,1723.92,1724.98,1726.53,1729.77,1733.64,1737.30,1744.58,0.00,0.00,0.00,0.00,0.00,0.00,0.00,0.00,0.00,685.10,710.34,718.31,721.66,723.36,724.68,724.74,724.29,722.86,722.96,722.61,722.63,721.22,721.22,719.70,720.53,720.48,720.52,718.83,717.53,718.19,717.63,715.52,713.33,711.73,712.07,711.40,710.66,709.05,707.51,706.10,705.73,705.70,706.40,704.77,701.99,697.99,696.05,695.72,696.20,695.79,693.52,693.23,692.74,692.98,691.90,692.81,693.35,694.06,694.37,697.44,698.73,701.53,705.54,709.37,712.60,714.22,716.40,718.39,720.61,723.46,727.17,730.14,732.53,734.24,738.34,743.20,745.99,744.65,742.35,740.54,738.13,734.21,730.16,729.50,726.67,719.90,711.82,706.21,701.11,694.79,690.76,688.73,687.97,685.94,683.53,682.08,680.70,680.11,679.12,677.34,676.46,676.06,675.73,677.28,676.32,676.50,675.13,677.56,678.92,679.43,680.33,681.17,682.39,682.82,684.77,686.05,688.30,689.85,690.58,690.04,691.04,693.17,696.93,699.73,703.42,704.47,706.07,707.64,711.23,714.29,716.29,716.73,717.60,716.78,717.50,716.71,719.10,720.68,723.28,724.11,725.53,728.13,730.72,736.26,758.86,787.73,798.83,799.80,799.98,799.94,799.83,799.02,796.70,795.48,792.87,791.07,790.09,788.44,786.37,784.10,782.57,780.36,776.34,774.79,772.95,771.32,766.48,759.30,744.91,735.60,733.49,732.96,732.27,736.15,740.98,740.97,737.12,735.32,733.78,733.90,734.74,735.05,735.56,733.31,731.55,729.56,730.30,732.11,731.73,729.61,725.41,722.13,719.24,718.63,718.12,716.33,714.50,711.62,708.74,706.05,704.00,703.26,701.37,698.08,692.36,681.91,668.16,648.49,0.00,0.00,0.00,0.00,0.00,0.00,0.00,0.00,0.00,0.00,0.00,0.00,0.00,0.00,0.00,0.00,0.00,0.00,0.00,0.00,0.00,0.00,0.00,0.00,0.00,0.00,0.00,0.00,0.00,0.00,0.00,0.00,0.00,0.00,0.00,0.00,0.00,0.00,0.00,0.00,0.00,0.00,0.00,0.00,0.00,0.00,0.00,0.00,0.00,0.00,0.00,0.00,0.00,0.00,0.00,0.00,0.00,0.00,0.00,0.00,0.00,0.00,0.00,0.00,0.00,0.00,0.00,0.00,0.00,0.00,0.00,0.00,0.00,0.00,0.00,0.00,0.00,0.00,0.00,0.00,0.00,0.00,0.00,0.00,0.00,0.00,0.00,0.00,0.00,0.00,0.00,0.00,0.00,0.00,0.00,0.00,0.00,0.00,0.00,0.00
0.00,0.00,0.00,0.00,0.00,0.00,0.00,0.00,0.00,0.00,0.00,0.00,0.00,0.00,0.00,0.00,0.00,0.00,0.00,0.00,0.00,0.00,1619.49,1634.91,1638.40,1641.02,1642.63,1646.07,1645.75,1648.16,1649.41,1649.90,1648.14,1647.54,1647.34,1647.96,1647.50,1649.23,1649.12,1650.01,1651.33,1653.30,1653.66,1652.14,1651.36,1651.72,1652.17,1652.62,1654.03,1653.75,1654.19,1653.15,1653.52,1653.76,1654.20,1654.60,1654.82,1654.98,1655.12,1654.36,1652.93,1652.77,1652.35,1652.94,1653.86,1654.81,1654.99,1654.96,1655.10,1656.20,1656.76,1658.08,1658.17,1657.78,1658.85,1659.30,1659.20,1658.78,1659.71,1659.03,1658.05,1656.17,1656.39,1657.43,1658.61,1659.18,1658.08,1656.80,1655.79,1656.02,1656.55,1656.62,1654.57,1651.04,1646.08,0.00,0.00,0.00,0.00,0.00,0.00,0.00,0.00,0.00,0.00,0.00,0.00,0.00,0.00,0.00,0.00,0.00,0.00,0.00,0.00,0.00,0.00,0.00,0.00,0.00,0.00,0.00,0.00,0.00,0.00,0.00,0.00,0.00,0.00,0.00,0.00,0.00,0.00,1641.29,1662.99,1672.51,1678.37,1681.76,1682.23,1682.80,1683.30,1685.04,1685.81,1687.82,1689.28,1690.07,1688.74,1689.12,1691.71,1694.81,1694.76,1694.84,1695.93,1697.28,1697.48,1696.75,1698.40,1699.39,1702.21,1703.33,1703.96,1704.57,1705.52,1707.29,1708.27,1708.99,1709.15,1709.00,1708.71,1708.61,1710.59,1712.76,1713.73,1712.66,1713.08,1714.36,1715.86,1716.50,1718.30,1719.99,1722.63,1723.89,1725.60,1728.81,1733.88,1743.03,0.00,0.00,0.00,0.00,0.00,0.00,0.00,0.00,0.00,689.76,709.58,718.11,720.42,722.42,721.57,723.54,723.41,722.69,720.51,718.93,718.62,718.61,717.30,716.65,715.08,716.83,717.88,718.63,716.85,714.30,713.17,712.12,711.31,709.81,708.87,709.08,708.80,706.83,704.09,702.41,701.89,701.83,701.38,700.83,698.40,696.21,693.88,693.06,691.41,691.45,690.97,690.10,689.03,687.24,687.11,686.70,688.38,688.56,688.80,689.27,691.62,693.80,697.09,699.43,701.79,703.92,707.47,710.30,713.79,716.43,719.52,722.32,725.56,729.36,731.99,735.82,739.13,741.04,739.38,736.79,734.56,733.06,729.79,725.78,724.63,724.16,719.49,711.11,703.16,699.28,693.57,690.93,687.97,687.28,685.12,683.06,681.44,679.87,678.60,676.97,675.68,675.16,674.51,673.74,674.72,674.25,674.15,673.29,675.85,677.66,679.06,679.65,679.39,679.47,680.52,682.88,683.57,684.54,685.86,688.08,689.26,691.09,692.81,695.84,699.74,703.21,704.51,705.30,707.38,711.79,713.79,714.08,714.05,716.49,717.68,718.17,717.17,718.32,719.79,721.74,722.84,724.79,726.84,728.82,730.73,747.32,779.62,794.91,797.91,797.92,797.51,797.24,796.47,793.95,791.60,788.79,788.20,787.50,785.58,782.68,780.16,778.77,776.45,772.44,768.73,766.51,765.55,759.69,745.36,731.43,726.87,725.88,723.55,720.03,722.11,725.32,727.56,727.68,728.97,729.79,730.22,730.50,730.20,729.95,728.64,727.36,726.68,727.47,728.61,727.95,725.21,722.17,718.87,716.72,715.16,713.91,711.99,709.36,707.24,704.87,703.44,702.92,703.10,700.74,697.16,692.88,686.66,676.44,661.11,645.13,0.00,0.00,0.00,0.00,0.00,0.00,0.00,0.00,0.00,0.00,0.00,0.00,0.00,0.00,0.00,0.00,0.00,0.00,0.00,0.00,0.00,0.00,0.00,0.00,0.00,0.00,0.00,0.00,0.00,0.00,0.00,0.00,0.00,0.00,0.00,0.00,0.00,0.00,0.00,0.00,0.00,0.00,0.00,0.00,0.00,0.00,0.00,0.00,0.00,0.00,0.00,0.00,0.00,0.00,0.00,0.00,0.00,0.00,0.00,0.00,0.00,0.00,0.00,0.00,0.00,0.00,0.00,0.00,0.00,0.00,0.00,0.00,0.00,0.00,0.00,0.00,0.00,0.00,0.00,0.00,0.00,0.00,0.00,0.00,0.00,0.00,0.00,0.00,0.00,0.00,0.00,0.00,0.00,0.00,0.00,0.00,0.00,0.00,0.00
0.00,0.00,0.00,0.00,0.00,0.00,0.00,0.00,0.00,0.00,0.00,0.00,0.00,0.00,0.00,0.00,0.00,0.00,0.00,0.00,0.00,0.00,1617.26,1635.05,1640.75,1643.19,1644.45,1646.36,1647.21,1647.65,1649.46,1648.66,1649.08,1648.06,1648.32,1648.40,1648.09,1648.37,1647.92,1648.91,1651.55,1653.10,1653.12,1651.64,1651.24,1653.59,1653.99,1654.22,1654.08,1653.62,1654.38,1653.34,1654.30,1653.76,1654.12,1653.67,1655.08,1654.37,1655.69,1654.83,1653.94,1653.97,1653.43,1655.09,1655.52,1656.27,1656.95,1657.26,1658.19,1657.44,1657.25,1657.41,1657.96,1657.70,1659.00,1659.79,1660.52,1659.69,1659.83,1658.24,1657.61,1656.17,1657.05,1657.41,1659.72,1658.76,1659.34,1657.24,1658.30,1657.43,1658.37,1657.72,1656.53,1653.15,1648.97,1642.26,0.00,0.00,0.00,0.00,0.00,0.00,0.00,0.00,0.00,0.00,0.00,0.00,0.00,0.00,0.00,0.00,0.00,0.00,0.00,0.00,0.00,0.00,0.00,0.00,0.00,0.00,0.00,0.00,0.00,0.00,0.00,0.00,0.00,0.00,0.00,0.00,0.00,0.00,1628.51,1662.22,1673.52,1680.55,1682.79,1684.16,1684.17,1685.93,1686.88,1688.92,1689.58,1688.96,1689.46,1690.76,1694.40,1696.12,1695.89,1695.27,1696.23,1696.98,1697.50,1697.60,1698.92,1699.39,1701.05,1703.73,1705.11,1706.10,1705.91,1707.69,1708.28,1708.95,1710.18,1710.81,1711.38,1710.05,1711.12,1711.68,1712.64,1711.68,1712.40,1713.74,1716.00,1717.48,1719.13,1721.39,1724.95,1727.98,1731.36,1736.22,1749.63,0.00,0.00,0.00,0.00,0.00,0.00,0.00,0.00,648.50,695.32,713.51,720.43,725.03,725.62,725.99,723.57,723.80,724.77,724.66,721.92,718.35,717.58,717.60,716.90,716.87,715.82,716.72,718.18,717.92,716.39,712.64,712.65,712.03,712.15,710.15,709.71,709.69,709.88,706.38,702.73,700.35,701.40,701.39,701.93,699.69,698.35,695.29,694.33,693.16,692.51,691.60,690.68,689.68,688.95,685.41,685.26,684.20,685.89,686.48,688.29,689.40,690.46,692.16,695.65,697.81,699.36,700.19,703.56,707.36,712.35,715.80,719.46,722.89,726.72,730.24,733.44,735.31,737.95,738.93,739.32,736.70,734.66,732.03,730.02,726.23,723.97,722.86,719.99,713.57,706.34,702.50,698.25,695.94,692.60,691.89,690.32,687.94,686.38,683.77,682.90,680.87,679.96,678.67,676.78,675.45,676.69,677.91,678.20,677.87,679.13,680.26,681.83,681.95,682.38,682.75,684.51,686.92,687.30,687.50,687.88,689.97,693.36,695.46,697.52,699.44,702.59,705.27,707.89,710.63,713.05,715.73,717.23,717.21,716.87,718.32,719.60,720.48,720.09,721.38,722.29,723.70,725.03,726.76,728.79,729.67,731.16,742.53,774.07,793.79,799.35,798.52,797.89,796.49,796.56,793.86,790.78,788.39,787.72,787.25,785.19,782.13,779.75,777.92,775.32,772.17,769.01,767.14,759.28,748.71,735.44,727.48,724.92,722.47,720.11,718.09,720.74,722.74,724.13,725.61,728.80,730.53,730.73,729.85,728.70,727.89,726.73,726.35,725.45,725.62,724.97,724.77,723.49,721.29,718.93,716.75,716.23,715.37,712.95,710.65,709.23,706.69,704.97,702.67,702.03,697.62,694.17,691.06,686.62,677.71,666.84,655.97,645.72,636.99,627.94,0.00,0.00,0.00,0.00,0.00,0.00,0.00,0.00,0.00,0.00,0.00,0.00,0.00,0.00,0.00,0.00,0.00,0.00,0.00,0.00,0.00,0.00,0.00,0.00,0.00,0.00,0.00,0.00,0.00,0.00,0.00,0.00,0.00,0.00,0.00,0.00,0.00,0.00,0.00,0.00,0.00,0.00,0.00,0.00,0.00,0.00,0.00,0.00,0.00,0.00,0.00,0.00,0.00,0.00,0.00,0.00,0.00,0.00,0.00,0.00,0.00,0.00,0.00,0.00,0.00,0.00,0.00,0.00,0.00,0.00,0.00,0.00,0.00,0.00,0.00,0.00,0.00,0.00,0.00,0.00,0.00,0.00,0.00,0.00,0.00,0.00,0.00,0.00,0.00,0.00,0.00,0.00,0.00,0.00,0.00,0.00
0.00,0.00,0.00,0.00,0.00,0.00,0.00,0.00,0.00,0.00,0.00,0.00,0.00,0.00,0.00,0.00,0.00,0.00,0.00,0.00,0.00,0.00,1606.83,1630.61,1639.74,1643.16,1641.69,1642.56,1643.69,1645.80,1647.78,1648.32,1647.73,1647.75,1647.10,1647.52,1645.62,1646.09,1645.01,1646.29,1648.94,1650.32,1650.60,1649.50,1648.60,1651.09,1651.29,1651.85,1650.13,1649.60,1650.52,1651.25,1651.84,1651.17,1650.78,1651.01,1651.85,1651.47,1652.63,1652.99,1651.70,1651.72,1651.19,1653.46,1653.30,1654.17,1653.61,1653.83,1654.96,1655.11,1654.35,1654.08,1654.43,1655.71,1655.73,1656.63,1656.98,1657.84,1657.80,1657.00,1655.69,1654.48,1654.99,1655.83,1657.86,1656.64,1656.68,1655.62,1656.92,1656.41,1656.66,1655.56,1654.34,1651.70,1648.54,1643.36,0.00,0.00,0.00,0.00,0.00,0.00,0.00,0.00,0.00,0.00,0.00,0.00,0.00,0.00,0.00,0.00,0.00,0.00,0.00,0.00,0.00,0.00,0.00,0.00,0.00,0.00,0.00,0.00,0.00,0.00,0.00,0.00,0.00,0.00,0.00,0.00,0.00,0.00,0.00,0.00,1661.58,1673.26,1678.05,1680.23,1681.63,1683.45,1685.15,1686.10,1686.78,1686.72,1687.47,1688.74,1691.36,1693.35,1693.28,1693.43,1694.46,1695.21,1695.38,1695.81,1697.37,1697.79,1698.48,1701.45,1703.15,1703.24,1702.26,1703.34,1704.33,1704.80,1706.48,1707.54,1708.98,1708.68,1709.40,1710.12,1710.22,1710.73,1710.84,1713.06,1714.58,1716.89,1718.47,1721.73,1726.26,1731.04,1737.11,0.00,0.00,0.00,0.00,0.00,0.00,0.00,0.00,0.00,652.47,697.41,710.82,718.83,722.56,724.03,723.29,721.91,719.36,718.15,718.60,718.71,716.90,713.46,713.72,713.96,714.08,714.01,713.42,714.18,714.58,714.17,713.21,710.02,710.17,708.70,708.29,705.99,706.29,706.00,705.06,701.14,697.22,695.44,695.66,697.31,697.62,695.44,692.91,690.49,690.30,689.71,689.12,688.11,686.78,686.15,685.14,681.68,680.15,678.67,678.92,679.97,680.89,683.09,683.15,684.43,685.51,686.43,688.57,691.01,694.37,698.58,703.13,708.77,713.16,718.21,722.29,725.86,729.40,730.73,732.35,732.23,734.02,732.97,731.54,727.05,724.98,721.75,719.85,718.67,717.13,713.02,706.35,702.43,698.79,695.20,691.28,689.88,688.60,687.07,685.32,682.86,681.56,679.13,678.34,678.20,676.66,675.96,675.29,677.29,677.58,678.16,678.09,678.08,680.12,681.13,682.69,683.02,684.29,686.37,685.18,686.21,686.24,689.41,693.01,695.36,697.17,699.83,703.35,706.38,707.59,709.82,711.95,712.24,713.55,713.15,714.15,714.33,716.27,717.48,718.18,718.29,720.41,720.89,722.39,722.72,725.53,727.73,729.75,737.45,761.31,784.64,793.25,793.45,792.70,791.34,790.93,788.68,785.32,783.47,782.74,782.44,780.84,777.53,774.54,772.55,772.37,770.44,763.16,751.45,736.47,724.18,719.20,717.17,717.01,716.01,715.56,715.06,716.34,718.18,718.92,720.68,721.53,723.52,723.26,724.15,724.14,723.66,722.28,721.99,722.91,723.04,721.92,720.89,718.71,716.74,714.64,713.99,713.49,711.98,710.28,708.85,707.52,704.02,700.33,697.60,696.11,692.06,687.68,683.78,680.31,674.39,667.29,662.66,657.43,655.27,650.01,643.81,637.33,634.92,632.40,628.46,625.35,621.20,0.00,0.00,0.00,0.00,0.00,0.00,0.00,0.00,0.00,0.00,0.00,0.00,0.00,0.00,0.00,0.00,0.00,0.00,0.00,0.00,0.00,0.00,0.00,0.00,0.00,0.00,0.00,0.00,0.00,0.00,0.00,0.00,0.00,0.00,0.00,0.00,0.00,0.00,0.00,0.00,0.00,0.00,0.00,0.00,0.00,0.00,0.00,0.00,0.00,0.00,0.00,0.00,0.00,0.00,0.00,0.00,0.00,0.00,0.00,0.00,0.00,0.00,0.00,0.00,0.00,0.00,0.00,0.00,0.00,0.00,0.00,0.00,0.00,0.00,0.00,0.00,0.00,0.00,0.00,0.00,0.00,0.00,0.00,0.00,0.00,0.00,0.00,0.00,0.00
0.00,0.00,0.00,0.00,0.00,0.00,0.00,0.00,0.00,0.00,0.00,0.00,0.00,0.00,0.00,0.00,0.00,0.00,0.00,0.00,0.00,0.00,1590.42,1623.05,1639.86,1642.47,1643.57,1642.76,1645.37,1647.21,1649.25,1649.83,1648.41,1648.32,1649.14,1649.18,1646.54,1645.51,1646.31,1648.31,1651.65,1651.50,1650.93,1648.18,1648.09,1649.14,1650.12,1650.74,1649.91,1649.74,1650.99,1651.36,1652.00,1651.19,1651.81,1651.98,1651.92,1651.74,1652.53,1653.26,1652.52,1653.06,1653.42,1654.00,1654.09,1654.46,1655.15,1654.39,1655.05,1655.30,1655.46,1655.10,1655.86,1656.72,1657.73,1657.44,1657.90,1658.11,1658.69,1658.34,1658.10,1657.53,1658.02,1657.37,1658.03,1656.67,1657.84,1657.62,1658.41,1657.79,1657.16,1656.16,1654.99,1654.02,1651.42,1647.86,0.00,0.00,0.00,0.00,0.00,0.00,0.00,0.00,0.00,0.00,0.00,0.00,0.00,0.00,0.00,0.00,0.00,0.00,0.00,0.00,0.00,0.00,0.00,0.00,0.00,0.00,0.00,0.00,0.00,0.00,0.00,0.00,0.00,0.00,0.00,0.00,0.00,0.00,0.00,0.00,0.00,1661.90,1672.34,1678.02,1681.60,1684.93,1685.65,1685.56,1685.67,1687.01,1688.30,1689.30,1690.52,1692.42,1692.89,1693.96,1694.84,1695.28,1695.64,1697.05,1698.45,1698.82,1699.98,1702.32,1703.14,1702.39,1701.48,1703.44,1704.51,1706.03,1707.65,1708.59,1710.26,1710.25,1710.57,1710.72,1711.05,1712.52,1713.58,1715.30,1717.96,1720.29,1722.29,1725.36,1732.08,1743.79,0.00,0.00,0.00,0.00,0.00,0.00,0.00,0.00,654.02,689.80,707.43,713.74,719.11,722.64,725.01,725.09,724.42,722.90,721.57,719.51,718.39,717.30,715.82,714.65,714.99,715.38,715.19,715.75,715.49,715.19,713.84,713.36,712.45,710.89,711.54,711.29,711.56,708.95,709.05,707.19,705.94,702.87,699.70,696.57,695.70,697.19,699.36,697.51,695.67,692.19,691.35,688.82,688.73,687.07,686.48,684.63,684.03,681.80,679.87,677.40,677.54,679.29,681.42,680.84,680.65,680.16,682.17,683.79,686.93,690.38,694.05,697.78,699.75,704.63,710.13,717.79,723.15,725.47,729.02,730.44,733.10,732.80,734.39,734.46,733.96,729.61,726.32,722.17,719.63,717.11,716.58,714.43,711.50,707.08,703.67,698.66,695.00,693.29,692.12,690.89,688.51,686.42,685.32,683.92,682.22,681.78,681.02,681.76,681.46,683.63,683.22,683.61,682.12,681.50,682.45,683.89,687.00,689.27,690.09,691.85,690.42,691.11,691.32,692.96,696.39,699.26,702.98,706.33,709.35,712.27,712.78,713.58,714.47,714.79,716.05,715.65,715.74,715.46,716.05,717.32,718.29,719.86,722.62,723.44,723.71,723.78,726.53,729.71,731.84,737.33,752.21,776.79,788.72,790.26,789.95,788.71,789.07,787.06,784.37,782.26,780.04,778.32,777.66,778.43,775.63,765.68,756.81,749.86,740.72,726.30,717.42,715.18,716.72,716.52,716.30,715.14,715.09,716.27,716.73,718.41,718.27,720.75,720.83,721.88,720.20,721.33,721.66,722.79,721.42,721.03,720.38,719.13,717.97,717.83,717.27,715.85,714.94,714.37,713.25,711.18,710.37,710.83,709.09,705.24,700.43,697.03,693.98,690.67,687.06,683.38,679.24,675.40,670.68,667.50,665.61,666.24,666.65,663.48,661.11,658.24,656.62,653.87,650.89,648.86,644.18,640.95,633.86,624.32,0.00,0.00,0.00,0.00,0.00,0.00,0.00,0.00,0.00,0.00,0.00,0.00,0.00,0.00,0.00,0.00,0.00,0.00,0.00,0.00,0.00,0.00,0.00,0.00,0.00,0.00,0.00,0.00,0.00,0.00,0.00,0.00,0.00,0.00,0.00,0.00,0.00,0.00,0.00,0.00,0.00,0.00,0.00,0.00,0.00,0.00,0.00,0.00,0.00,0.00,0.00,0.00,0.00,0.00,0.00,0.00,0.00,0.00,0.00,0.00,0.00,0.00,0.00,0.00,0.00,0.00,0.00,0.00,0.00,0.00,0.00,0.00,0.00,0.00,0.00,0.00,0.00,0.00,0.00,0.00,0.00,0.00,0.00,0.00,0.00
0.00,0.00,0.00,0.00,0.00,0.00,0.00,0.00,0.00,0.00,0.00,0.00,0.00,0.00,0.00,0.00,0.00,0.00,0.00,0.00,0.00,0.00,0.00,1615.23,1631.99,1636.36,1639.41,1640.56,1643.43,1644.42,1647.37,1648.62,1647.84,1647.95,1648.57,1647.66,1644.55,1644.88,1645.52,1646.59,1646.85,1646.96,1646.60,1644.55,1645.11,1645.91,1648.01,1648.31,1648.02,1648.08,1649.76,1650.19,1649.85,1649.62,1650.67,1651.05,1649.05,1648.73,1649.24,1651.35,1650.83,1651.49,1652.04,1652.34,1652.06,1651.71,1651.70,1649.78,1649.18,1650.17,1651.77,1652.37,1653.88,1655.17,1656.11,1655.32,1654.90,1655.26,1655.80,1657.16,1657.12,1656.65,1656.18,1656.11,1655.77,1654.89,1654.84,1655.40,1655.24,1656.02,1655.12,1655.70,1654.53,1653.95,1651.19,1648.74,0.00,0.00,0.00,0.00,0.00,0.00,0.00,0.00,0.00,0.00,0.00,0.00,0.00,0.00,0.00,0.00,0.00,0.00,0.00,0.00,0.00,0.00,0.00,0.00,0.00,0.00,0.00,0.00,0.00,0.00,0.00,0.00,0.00,0.00,0.00,0.00,0.00,0.00,0.00,0.00,0.00,0.00,1656.60,1668.30,1674.62,1679.17,1680.33,1680.38,1682.12,1684.66,1685.29,1684.97,1685.33,1688.60,1690.05,1692.04,1692.58,1693.17,1692.92,1694.35,1695.87,1696.75,1697.83,1698.66,1699.42,1698.27,1698.69,1700.26,1702.49,1703.69,1704.69,1704.86,1706.35,1707.08,1709.00,1710.38,1710.72,1710.76,1711.12,1714.93,1718.98,1723.25,1725.36,1729.70,0.00,0.00,0.00,0.00,0.00,0.00,0.00,0.00,0.00,645.07,697.26,709.48,715.89,719.17,719.54,721.29,721.70,721.28,720.15,718.40,718.36,716.92,716.29,713.80,711.44,710.12,711.31,712.54,712.97,714.06,713.96,713.56,710.88,711.14,710.87,710.69,709.63,709.32,708.74,706.90,706.89,705.12,703.86,700.89,697.85,694.03,693.33,694.78,695.78,694.41,692.36,688.76,685.39,683.30,684.54,683.50,682.80,679.64,677.65,677.65,676.22,675.83,673.70,674.85,675.65,675.29,674.29,673.35,674.65,675.80,678.61,682.05,686.11,690.05,692.58,698.71,704.50,711.93,717.69,720.54,723.63,725.37,728.54,728.72,729.98,730.40,730.85,727.19,722.56,717.99,715.68,714.02,712.98,711.82,708.66,704.82,699.44,695.08,692.41,690.58,689.08,688.17,686.13,685.62,683.39,683.04,680.68,681.29,680.99,682.85,682.12,684.07,682.47,681.98,680.41,680.40,681.55,682.98,686.04,689.52,690.95,692.24,690.21,691.18,693.41,696.19,698.90,700.58,703.50,707.18,710.69,714.13,713.04,712.20,712.24,712.91,713.81,713.29,713.24,713.14,712.86,714.36,715.89,717.22,720.05,720.14,721.03,720.67,724.00,727.72,729.11,732.83,741.46,763.54,778.84,784.40,785.03,783.46,782.43,779.49,777.22,775.16,772.84,768.68,763.25,756.83,749.83,738.82,728.29,719.55,714.20,709.48,709.39,709.44,713.01,712.38,713.39,713.09,713.09,713.55,712.14,713.90,712.45,714.74,714.42,714.75,713.91,716.47,718.63,719.49,717.14,716.25,715.95,715.81,715.49,714.93,713.60,711.58,710.27,709.57,708.37,705.90,705.57,706.12,704.84,702.11,697.81,695.27,691.26,688.70,685.71,682.53,677.93,675.13,671.96,670.46,668.95,669.31,669.63,668.12,667.03,665.08,663.49,660.81,659.27,657.63,656.07,653.16,649.58,643.44,636.64,630.71,623.12,613.52,602.35,0.00,0.00,0.00,0.00,0.00,0.00,0.00,0.00,0.00,0.00,0.00,0.00,0.00,0.00,0.00,0.00,0.00,0.00,0.00,0.00,0.00,0.00,0.00,0.00,0.00,0.00,0.00,0.00,0.00,0.00,0.00,0.00,0.00,0.00,0.00,0.00,0.00,0.00,0.00,0.00,0.00,0.00,0.00,0.00,0.00,0.00,0.00,0.00,0.00,0.00,0.00,0.00,0.00,0.00,0.00,0.00,0.00,0.00,0.00,0.00,0.00,0.00,0.00,0.00,0.00,0.00,0.00,0.00,0.00,0.00,0.00,0.00,0.00,0.00,0.00,0.00,0.00,0.00,0.00,0.00
0.00,0.00,0.00,0.00,0.00,0.00,0.00,0.00,0.00,0.00,0.00,0.00,0.00,0.00,0.00,0.00,0.00,0.00,0.00,0.00,0.00,0.00,0.00,1609.74,1629.07,1632.82,1639.43,1641.11,1645.47,1644.51,1647.62,1648.38,1649.69,1649.43,1650.09,1649.43,1647.92,1649.25,1650.58,1649.64,1647.41,1645.41,1645.56,1643.46,1644.17,1643.57,1646.42,1647.38,1648.86,1649.29,1650.93,1651.09,1650.75,1650.65,1651.17,1651.12,1649.13,1649.88,1650.58,1652.47,1651.27,1651.10,1651.90,1652.67,1653.38,1652.80,1653.57,1651.71,1650.57,1650.39,1651.79,1652.57,1654.38,1654.72,1655.75,1655.05,1655.81,1655.19,1655.17,1656.78,1657.93,1657.71,1657.09,1656.47,1656.88,1656.49,1657.03,1657.08,1656.71,1657.68,1657.62,1658.18,1657.91,1656.51,1653.78,1651.44,1651.32,0.00,0.00,0.00,0.00,0.00,0.00,0.00,0.00,0.00,0.00,0.00,0.00,0.00,0.00,0.00,0.00,0.00,0.00,0.00,0.00,0.00,0.00,0.00,0.00,0.00,0.00,0.00,0.00,0.00,0.00,0.00,0.00,0.00,0.00,0.00,0.00,0.00,0.00,0.00,0.00,0.00,0.00,1650.79,1665.88,1673.69,1678.06,1680.06,1682.07,1684.46,1685.32,1685.66,1686.67,1689.23,1690.73,1691.86,1692.80,1693.74,1693.84,1695.33,1696.29,1696.99,1697.65,1698.20,1699.18,1698.08,1699.09,1701.20,1703.54,1704.65,1704.85,1705.88,1706.66,1707.51,1709.50,1710.89,1712.48,1711.69,1713.10,1717.48,1723.83,1729.96,1735.01,0.00,0.00,0.00,0.00,0.00,0.00,0.00,0.00,0.00,668.75,704.33,716.63,721.30,722.70,722.23,721.88,722.25,722.49,721.95,722.11,719.47,718.67,717.15,717.31,715.17,712.88,713.05,714.31,715.34,714.86,715.33,715.74,713.73,711.22,711.34,712.62,712.49,710.97,709.53,709.91,707.68,707.90,704.97,704.78,702.81,699.96,695.54,694.64,694.44,694.53,693.56,692.92,689.64,685.70,683.51,683.88,681.63,680.22,677.47,676.15,675.44,674.14,674.31,674.62,675.16,676.00,674.63,674.96,674.48,676.32,677.36,679.60,681.04,684.40,688.33,692.54,698.23,703.18,709.51,715.86,720.20,722.96,724.57,728.64,729.28,730.62,729.16,729.36,727.00,723.46,719.56,715.73,713.29,711.16,711.13,709.59,707.76,702.17,699.20,697.26,695.75,693.91,692.61,690.57,688.78,687.09,686.87,685.57,685.20,685.45,686.90,687.16,687.80,686.62,684.95,684.25,684.50,685.83,688.20,689.99,693.78,695.66,697.89,698.14,697.85,700.93,702.27,705.49,707.03,710.05,712.02,714.32,716.99,716.81,715.40,714.55,716.56,717.28,717.61,715.45,715.82,714.16,715.24,716.13,719.03,721.61,722.44,722.53,723.55,726.10,729.31,730.00,733.49,740.18,756.46,771.82,780.14,782.68,781.10,779.16,774.10,766.36,757.31,748.29,741.09,733.95,727.78,721.28,716.18,711.30,708.24,708.47,709.02,710.00,710.66,713.50,713.14,714.10,713.71,714.31,714.71,713.38,713.80,712.08,712.31,713.09,713.26,713.99,715.42,717.65,719.06,718.03,717.37,715.72,714.75,713.27,711.82,710.97,709.59,709.20,708.48,708.06,706.45,705.75,705.21,703.50,700.63,697.06,694.50,690.66,688.18,686.66,684.00,680.74,678.22,676.59,674.82,673.44,673.30,673.55,672.75,672.35,670.49,669.31,667.69,667.11,664.37,661.59,658.98,656.93,653.00,648.74,645.36,640.93,636.03,630.32,624.55,617.07,608.35,603.35,595.66,588.02,0.00,0.00,0.00,0.00,0.00,0.00,0.00,0.00,0.00,0.00,0.00,0.00,0.00,0.00,0.00,0.00,0.00,0.00,0.00,0.00,0.00,0.00,0.00,0.00,0.00,0.00,0.00,0.00,0.00,0.00,0.00,0.00,0.00,0.00,0.00,0.00,0.00,0.00,0.00,0.00,0.00,0.00,0.00,0.00,0.00,0.00,0.00,0.00,0.00,0.00,0.00,0.00,0.00,0.00,0.00,0.00,0.00,0.00,0.00,0.00,0.00,0.00,0.00,0.00,0.00,0.00,0.00,0.00,0.00,0.00,0.00,0.00,0.00,0.00
0.00,0.00,0.00,0.00,0.00,0.00,0.00,0.00,0.00,0.00,0.00,0.00,0.00,0.00,0.00,0.00,0.00,0.00,0.00,0.00,0.00,0.00,0.00,1605.38,1622.66,1630.55,1634.67,1636.76,1640.69,1641.20,1644.93,1645.32,1645.88,1644.97,1645.35,1646.00,1646.13,1647.90,1648.57,1647.00,1643.39,1641.95,1642.52,1642.63,1642.29,1642.96,1645.07,1646.36,1646.14,1646.29,1647.88,1649.16,1647.80,1646.96,1647.02,1648.29,1647.56,1648.38,1647.91,1649.05,1647.16,1647.02,1647.19,1649.70,1650.40,1650.16,1649.81,1649.24,1648.36,1647.88,1648.77,1650.08,1651.63,1652.33,1652.65,1652.76,1653.25,1652.65,1652.35,1653.36,1654.77,1654.42,1653.78,1653.48,1655.09,1655.79,1654.84,1654.77,1654.51,1656.43,1656.13,1655.98,1655.47,1653.36,1651.63,1650.68,1652.41,0.00,0.00,0.00,0.00,1292.18,0.00,0.00,0.00,0.00,0.00,0.00,0.00,0.00,0.00,0.00,0.00,0.00,0.00,0.00,0.00,0.00,0.00,0.00,0.00,0.00,0.00,0.00,0.00,0.00,0.00,0.00,0.00,0.00,0.00,0.00,0.00,0.00,0.00,0.00,0.00,0.00,0.00,0.00,1641.60,1662.30,1671.79,1677.03,1680.82,1682.15,1683.12,1683.71,1685.19,1688.13,1689.05,1689.84,1689.46,1690.57,1690.84,1692.49,1693.70,1695.35,1695.84,1696.44,1697.50,1697.25,1698.73,1699.76,1701.28,1700.93,1701.44,1702.47,1704.22,1706.10,1708.73,1709.12,1710.27,1710.20,1713.37,1718.27,1725.31,1732.87,0.00,0.00,0.00,0.00,0.00,0.00,0.00,0.00,0.00,671.46,700.62,714.06,721.07,722.91,722.06,721.37,719.58,718.74,718.64,718.62,719.02,715.95,715.39,714.02,715.19,714.22,713.19,712.96,713.82,713.93,713.42,713.66,713.86,712.19,710.17,710.70,711.78,710.51,708.09,705.70,705.39,703.40,702.75,700.04,698.64,697.64,694.71,691.81,688.94,688.80,687.27,687.90,687.23,684.26,680.90,679.73,680.62,678.48,674.95,671.76,670.34,670.19,669.03,668.92,669.30,670.31,669.56,669.81,669.75,671.73,672.03,673.43,675.18,677.05,679.57,683.21,688.69,695.29,699.33,703.80,708.45,713.97,718.36,722.10,725.32,725.95,725.93,724.13,723.51,722.13,719.51,715.73,710.62,707.44,705.51,706.21,704.54,703.37,699.24,699.14,697.25,695.18,693.00,691.70,690.58,688.66,686.39,685.39,683.37,684.15,684.36,686.82,686.67,687.32,685.55,684.21,684.11,685.06,686.55,688.83,690.49,693.78,695.51,697.29,699.00,700.09,703.75,704.52,708.70,710.10,712.44,712.19,713.92,715.46,715.47,714.13,713.64,714.38,714.40,714.33,713.64,714.40,712.55,713.45,714.31,716.69,718.43,719.14,720.50,722.35,725.49,728.82,730.32,733.43,739.43,747.54,750.93,751.98,751.86,750.16,746.69,741.62,734.51,727.87,720.80,716.53,711.77,708.68,706.26,705.93,705.18,704.81,705.59,707.06,707.72,707.02,708.34,708.41,710.54,710.66,711.01,710.40,710.39,710.67,710.11,708.67,708.67,707.76,709.51,711.20,714.03,713.13,712.83,712.45,713.08,712.82,709.85,706.80,704.45,703.46,703.51,702.69,703.81,702.80,702.30,699.85,698.37,694.84,691.33,687.84,684.23,683.09,681.55,680.38,677.79,676.89,675.86,675.14,674.25,673.36,671.65,670.14,669.72,668.54,667.64,666.37,666.07,662.52,659.15,656.23,654.98,652.58,650.08,648.77,646.47,643.72,639.99,635.71,631.59,626.63,623.41,617.77,612.06,606.10,598.53,587.12,0.00,0.00,0.00,0.00,0.00,0.00,0.00,0.00,0.00,0.00,0.00,0.00,0.00,0.00,0.00,0.00,0.00,0.00,0.00,0.00,0.00,0.00,0.00,0.00,0.00,0.00,0.00,0.00,0.00,0.00,0.00,0.00,0.00,0.00,0.00,0.00,0.00,0.00,0.00,0.00,0.00,0.00,0.00,0.00,0.00,0.00,0.00,0.00,0.00,0.00,0.00,0.00,0.00,0.00,0.00,0.00,0.00,0.00,0.00,0.00,0.00,0.00,0.00,0.00,0.00,0.00,0.00,0.00,0.00,0.00,0.00
0.00,0.00,0.00,0.00,0.00,0.00,0.00,0.00,0.00,0.00,0.00,0.00,0.00,0.00,0.00,0.00,0.00,0.00,0.00,0.00,0.00,0.00,0.00,1589.83,1619.83,1630.93,1634.36,1634.65,1639.59,1641.60,1644.23,1643.86,1643.95,1643.30,1643.38,1645.63,1645.98,1647.76,1648.04,1648.49,1646.00,1644.91,1646.33,1646.77,1645.05,1644.83,1646.22,1648.01,1646.94,1646.40,1646.94,1648.71,1648.95,1648.26,1647.09,1647.32,1648.03,1649.04,1649.06,1649.22,1648.44,1648.06,1649.57,1649.99,1651.41,1650.25,1651.00,1650.92,1651.04,1650.90,1650.69,1651.19,1651.98,1652.35,1652.71,1653.15,1654.64,1653.44,1652.45,1651.80,1653.67,1653.85,1654.31,1653.88,1656.39,1657.10,1657.15,1656.49,1656.76,1657.19,1656.75,1655.94,1655.57,1653.93,1653.43,1653.43,1654.06,0.00,0.00,0.00,0.00,1291.55,0.00,0.00,0.00,0.00,0.00,0.00,0.00,0.00,0.00,0.00,0.00,0.00,0.00,0.00,0.00,0.00,0.00,0.00,0.00,0.00,0.00,0.00,0.00,0.00,0.00,0.00,0.00,0.00,0.00,0.00,0.00,0.00,0.00,0.00,0.00,0.00,0.00,0.00,0.00,0.00,1663.44,1673.24,1678.38,1681.67,1683.26,1685.99,1687.37,1689.73,1689.44,1689.77,1690.02,1691.06,1691.70,1692.52,1694.00,1695.32,1696.80,1697.09,1698.57,1699.35,1700.88,1701.64,1700.48,1700.96,1701.84,1704.14,1704.89,1707.15,1710.01,1710.14,1711.51,1714.21,1720.29,1724.87,1731.90,0.00,0.00,0.00,0.00,0.00,0.00,0.00,0.00,0.00,681.72,701.99,712.31,720.01,725.20,725.59,724.50,722.98,722.51,720.89,720.75,719.47,719.82,716.53,716.13,714.53,715.87,715.32,715.49,715.52,716.94,716.28,714.70,713.58,714.09,713.31,712.00,711.85,712.18,710.84,708.65,706.95,706.75,705.03,703.33,700.65,699.13,698.69,697.12,694.07,690.14,688.89,687.39,687.82,686.74,683.70,681.93,679.80,679.47,676.16,673.52,671.28,670.93,669.97,668.56,666.49,667.39,668.75,668.63,668.40,669.52,672.14,672.70,672.85,674.92,677.98,681.38,684.90,689.21,693.65,697.17,700.94,706.66,712.47,719.33,723.54,726.68,727.25,725.98,723.93,722.90,722.38,720.25,716.06,711.42,708.36,706.51,705.57,703.73,703.15,701.92,702.87,701.08,699.40,697.09,695.43,693.99,692.19,690.78,689.62,688.39,689.00,689.42,690.35,690.71,690.91,690.70,690.31,691.31,691.53,692.70,693.86,696.62,698.53,701.05,702.37,706.19,707.91,711.20,710.65,713.30,713.67,714.83,713.08,713.66,713.98,714.72,713.41,712.59,712.50,712.51,712.70,712.86,714.69,714.58,714.28,713.30,714.43,716.56,718.92,720.89,722.56,723.43,725.26,725.84,724.99,724.98,724.96,725.09,724.79,723.45,723.57,718.95,716.20,712.70,711.30,708.91,708.54,707.12,707.48,706.78,707.38,706.59,706.89,707.78,708.76,708.68,707.87,708.63,708.94,709.90,709.74,710.38,710.97,712.83,712.28,711.73,708.49,708.61,708.26,710.02,710.81,712.19,712.25,712.44,712.67,712.39,711.15,708.18,705.99,703.92,703.02,702.82,702.40,703.01,702.45,701.34,698.14,695.15,691.71,689.24,686.07,683.23,681.73,681.19,680.78,680.05,679.65,678.67,678.09,677.37,675.19,672.82,670.40,670.40,669.06,668.61,667.94,666.74,663.66,659.43,658.13,656.79,655.01,652.28,650.54,649.56,647.19,645.28,641.65,639.18,636.05,634.59,630.82,626.29,620.12,614.23,606.40,594.56,579.82,0.00,0.00,0.00,0.00,0.00,0.00,0.00,0.00,0.00,0.00,0.00,0.00,0.00,0.00,0.00,0.00,0.00,0.00,0.00,0.00,0.00,0.00,0.00,0.00,0.00,0.00,0.00,0.00,0.00,0.00,0.00,0.00,0.00,0.00,0.00,0.00,0.00,0.00,0.00,0.00,0.00,0.00,0.00,0.00,0.00,0.00,0.00,0.00,0.00,0.00,0.00,0.00,0.00,0.00,0.00,0.00,0.00,0.00,0.00,0.00,0.00,0.00,0.00,0.00,0.00,0.00,0.00,0.00,0.00
0.00,0.00,0.00,0.00,0.00,0.00,0.00,0.00,0.00,0.00,0.00,0.00,0.00,0.00,0.00,0.00,0.00,0.00,0.00,0.00,0.00,0.00,0.00,0.00,1614.31,1628.52,1631.75,1633.82,1636.84,1639.46,1640.22,1641.33,1640.42,1639.15,1639.53,1641.71,1642.40,1643.44,1644.77,1646.76,1644.95,1644.23,1645.14,1646.91,1645.49,1645.09,1646.02,1647.31,1646.18,1645.48,1644.98,1645.71,1644.86,1645.00,1644.43,1645.75,1647.03,1647.36,1646.27,1645.45,1645.79,1645.66,1646.82,1646.19,1646.93,1646.41,1647.49,1648.96,1648.98,1649.29,1648.37,1649.24,1649.92,1650.16,1650.26,1650.48,1651.39,1650.97,1650.83,1650.87,1651.89,1651.22,1651.17,1651.28,1653.29,1654.86,1655.05,1654.61,1654.27,1654.20,1652.56,1651.81,1651.20,1652.34,1652.81,1652.97,1652.02,0.00,0.00,0.00,0.00,1300.52,0.00,0.00,0.00,0.00,0.00,0.00,0.00,0.00,0.00,0.00,0.00,0.00,0.00,0.00,0.00,0.00,0.00,0.00,0.00,0.00,0.00,0.00,0.00,0.00,0.00,0.00,0.00,0.00,0.00,0.00,0.00,0.00,0.00,0.00,0.00,0.00,0.00,0.00,0.00,0.00,0.00,1660.49,1670.63,1675.94,1679.39,1681.90,1683.69,1685.91,1686.46,1687.21,1687.52,1688.39,1689.09,1690.08,1691.53,1692.86,1695.15,1695.34,1696.53,1697.38,1698.63,1699.12,1698.40,1699.53,1701.12,1701.01,1702.00,1703.54,1707.65,1708.74,1712.29,1715.97,1723.27,0.00,0.00,0.00,0.00,0.00,0.00,0.00,0.00,0.00,0.00,682.78,703.85,711.43,716.14,719.94,723.01,723.41,721.79,720.60,720.36,719.34,717.71,716.20,715.69,714.24,714.25,713.39,712.91,711.46,711.89,712.14,713.29,711.79,710.20,710.47,710.70,712.08,710.02,710.04,707.53,707.26,704.99,705.03,703.32,702.15,700.15,697.66,695.70,693.82,692.17,689.39,685.61,685.35,684.71,684.92,683.01,680.50,678.88,677.77,674.77,671.64,668.07,667.58,666.45,665.89,663.42,661.24,660.18,661.75,662.60,663.95,663.77,664.07,664.32,665.99,669.39,673.04,675.88,679.98,684.45,689.07,692.02,693.96,698.31,704.86,713.23,720.10,722.19,723.76,720.66,719.73,718.73,718.93,716.25,711.65,707.83,704.57,701.89,699.42,697.10,696.93,696.79,698.62,697.79,697.48,694.39,692.58,691.20,691.79,691.60,691.67,689.85,689.41,687.91,688.69,689.16,690.20,689.74,690.60,692.12,693.15,694.00,695.13,698.12,700.22,703.15,705.43,707.64,708.42,709.97,710.20,712.31,712.07,713.02,710.49,709.06,707.12,707.04,707.42,706.65,706.23,705.92,706.25,705.98,706.67,707.77,707.52,706.24,705.38,706.66,708.77,710.61,710.74,710.24,710.23,711.87,711.18,710.30,707.73,706.85,707.47,705.39,704.93,701.76,702.05,701.70,703.69,704.76,705.18,705.25,705.12,703.56,703.39,703.19,704.12,703.74,704.01,705.32,705.80,706.72,706.11,706.21,706.25,706.46,706.41,708.60,708.89,709.42,706.43,705.18,705.10,706.71,708.47,708.86,707.18,706.32,705.54,705.97,705.66,703.59,702.51,699.86,699.05,697.11,696.04,694.94,694.60,693.17,689.98,686.61,684.54,682.87,681.08,679.50,679.71,678.14,677.42,675.71,676.14,675.20,674.70,674.40,672.38,669.86,667.16,666.89,665.63,664.10,663.14,662.15,660.17,656.18,654.98,653.47,651.80,649.38,647.36,647.20,646.19,645.38,642.69,639.04,636.00,633.69,631.31,627.19,621.97,616.09,610.40,602.41,594.29,583.51,575.96,567.59,564.22,0.00,0.00,0.00,0.00,0.00,0.00,0.00,0.00,0.00,0.00,0.00,0.00,0.00,0.00,0.00,0.00,0.00,0.00,0.00,0.00,0.00,0.00,0.00,0.00,0.00,0.00,0.00,0.00,0.00,0.00,0.00,0.00,0.00,0.00,0.00,0.00,0.00,0.00,0.00,0.00,0.00,0.00,0.00,0.00,0.00,0.00,0.00,0.00,0.00,0.00,0.00,0.00,0.00,0.00,0.00,0.00,0.00,0.00,0.00,0.00,0.00,0.00,0.00,0.00,0.00
0.00,0.00,0.00,0.00,0.00,0.00,0.00,0.00,0.00,0.00,0.00,0.00,0.00,0.00,0.00,0.00,0.00,0.00,0.00,0.00,0.00,0.00,0.00,0.00,1607.35,1625.57,1632.56,1634.49,1638.36,1640.13,1640.93,1642.88,1643.13,1642.11,1641.30,1642.44,1644.67,1647.05,1648.03,1648.05,1646.12,1646.37,1647.38,1648.72,1647.77,1645.52,1646.17,1646.95,1647.65,1645.77,1645.84,1645.65,1646.71,1645.89,1646.20,1646.32,1648.64,1648.30,1647.56,1645.87,1647.70,1646.65,1648.66,1646.11,1647.53,1646.42,1648.62,1648.70,1649.26,1649.23,1649.97,1650.60,1651.83,1651.01,1650.61,1650.07,1651.85,1651.63,1652.32,1652.24,1653.06,1651.37,1651.31,1651.05,1652.42,1653.18,1654.85,1655.36,1655.16,1654.15,1652.88,1652.46,1652.68,1654.38,1655.69,1654.63,1653.59,0.00,0.00,0.00,0.00,1312.69,0.00,0.00,0.00,0.00,0.00,0.00,0.00,0.00,0.00,0.00,0.00,0.00,0.00,0.00,0.00,0.00,0.00,0.00,0.00,0.00,0.00,0.00,0.00,0.00,0.00,0.00,0.00,0.00,0.00,0.00,0.00,0.00,0.00,0.00,0.00,0.00,0.00,0.00,0.00,0.00,0.00,0.00,1657.92,1669.31,1676.22,1680.22,1683.36,1683.98,1685.51,1686.98,1688.69,1689.41,1689.60,1690.86,1691.91,1692.84,1694.24,1694.72,1695.82,1696.81,1697.83,1698.57,1698.41,1699.99,1701.68,1702.04,1702.77,1705.35,1710.98,1714.78,1720.04,1722.91,0.00,0.00,0.00,0.00,0.00,0.00,0.00,0.00,0.00,0.00,689.84,704.98,714.85,718.63,720.27,721.39,724.39,724.94,722.58,720.42,721.33,721.45,719.68,717.13,717.03,715.67,714.92,713.43,712.09,710.63,710.95,712.72,714.85,713.23,710.14,709.57,710.15,711.59,709.76,708.88,707.13,707.60,705.64,705.34,703.64,703.79,702.12,698.74,697.01,694.88,694.13,691.43,688.32,687.59,687.10,687.81,685.15,681.32,678.45,677.43,674.00,671.76,669.20,670.13,667.75,665.94,663.01,660.71,659.83,660.57,662.15,662.39,663.36,662.76,663.54,663.56,667.39,670.79,674.60,677.12,680.94,685.47,689.97,692.75,696.41,701.17,708.73,716.42,720.66,722.88,721.63,720.73,720.25,719.41,717.42,712.89,710.04,706.84,703.59,699.48,696.56,696.19,696.46,697.20,695.96,695.22,694.30,695.18,695.50,696.32,696.08,696.30,696.15,694.99,693.44,691.58,693.52,694.89,696.42,697.24,699.68,700.51,701.51,702.76,705.75,706.13,708.59,710.72,712.86,712.38,712.75,712.11,712.84,710.99,712.36,709.55,708.84,706.51,706.98,707.00,706.18,705.65,705.42,704.99,704.23,704.15,705.40,705.25,704.53,704.63,704.69,705.59,705.91,706.11,705.18,704.49,705.72,705.45,705.23,703.38,703.49,704.10,703.75,703.40,702.16,701.87,702.68,703.91,706.02,705.64,706.05,706.85,705.40,703.56,702.36,704.13,704.97,704.91,706.49,707.20,707.83,706.18,706.67,706.84,707.57,707.00,708.71,708.54,709.53,707.35,706.91,706.97,707.97,709.38,708.98,708.95,707.01,705.24,703.84,704.24,703.85,703.78,701.29,699.30,695.52,693.71,691.78,690.86,688.54,686.24,684.26,683.60,682.71,680.90,680.59,680.07,680.06,678.41,678.01,677.41,677.20,675.46,674.97,672.11,670.95,668.02,667.74,665.68,662.80,662.23,661.41,661.19,657.28,655.19,654.42,652.81,651.50,649.31,648.28,647.08,645.71,644.36,641.04,637.63,634.38,631.42,627.79,623.85,618.29,613.33,606.79,600.98,594.57,590.44,587.03,584.33,579.95,578.63,574.46,567.71,0.00,0.00,0.00,0.00,0.00,0.00,0.00,0.00,0.00,0.00,0.00,0.00,0.00,0.00,0.00,0.00,0.00,0.00,0.00,0.00,0.00,0.00,0.00,0.00,0.00,0.00,0.00,0.00,0.00,0.00,0.00,0.00,0.00,0.00,0.00,0.00,0.00,0.00,0.00,0.00,0.00,0.00,0.00,0.00,0.00,0.00,0.00,0.00,0.00,0.00,0.00,0.00,0.00,0.00,0.00,0.00,0.00,0.00,0.00,0.00,0.00
0.00,0.00,0.00,0.00,0.00,0.00,0.00,0.00,0.00,0.00,0.00,0.00,0.00,0.00,0.00,0.00,0.00,0.00,0.00,0.00,0.00,0.00,0.00,0.00,1592.16,1617.44,1628.19,1632.36,1635.11,1636.83,1637.42,1641.69,1643.05,1643.65,1643.18,1642.92,1645.10,1646.23,1647.17,1646.13,1645.52,1645.88,1645.66,1645.79,1646.64,1644.69,1645.46,1645.02,1646.62,1643.94,1644.03,1643.38,1645.68,1645.14,1645.61,1645.91,1647.28,1647.48,1647.17,1646.54,1647.56,1645.01,1645.29,1644.19,1645.49,1645.89,1647.21,1648.22,1648.04,1647.58,1649.32,1650.00,1651.55,1649.06,1647.98,1646.98,1648.80,1649.38,1651.14,1651.42,1652.64,1650.82,1650.67,1649.97,1651.93,1651.92,1652.81,1652.49,1653.86,1654.20,1653.76,1653.17,1652.96,1653.85,1654.92,1653.93,1652.81,1652.37,0.00,0.00,0.00,0.00,1312.45,0.00,0.00,0.00,0.00,0.00,0.00,0.00,0.00,0.00,0.00,0.00,0.00,0.00,0.00,0.00,0.00,0.00,0.00,0.00,0.00,0.00,0.00,0.00,0.00,0.00,0.00,0.00,0.00,0.00,0.00,0.00,0.00,0.00,0.00,0.00,0.00,0.00,0.00,0.00,0.00,0.00,0.00,1653.91,1666.53,1673.01,1679.77,1681.74,1684.24,1686.65,1688.52,1688.78,1688.43,1690.04,1690.74,1691.28,1692.68,1695.09,1697.02,1697.67,1697.89,1697.83,1698.46,1699.71,1701.89,1702.33,1703.60,1706.43,1712.23,1718.56,1725.92,0.00,0.00,0.00,0.00,0.00,0.00,0.00,0.00,0.00,651.65,699.69,709.80,714.41,719.95,721.08,722.24,722.02,722.74,721.64,719.65,718.59,719.02,719.01,717.90,716.86,716.86,715.35,714.44,713.00,711.01,709.55,710.52,712.95,714.29,712.34,709.80,709.03,708.97,709.21,708.43,708.13,707.81,707.12,705.24,703.13,701.56,700.51,700.74,697.29,695.86,693.28,691.84,689.01,685.92,684.79,684.71,683.81,682.63,679.90,677.36,675.64,671.70,671.49,668.50,668.02,663.51,660.30,658.28,657.46,658.04,657.66,658.06,659.20,660.65,661.00,661.13,661.66,664.75,668.69,672.58,672.61,674.32,678.21,684.54,688.43,691.59,695.99,701.82,710.76,716.52,719.31,719.14,718.24,718.82,716.79,715.68,712.15,710.03,705.11,701.37,698.18,696.63,695.69,695.36,695.90,693.81,691.96,691.27,694.19,696.17,697.59,698.44,699.90,700.27,699.41,697.56,697.28,699.38,700.91,702.48,703.18,706.15,707.02,709.20,709.57,710.79,710.03,711.71,712.80,714.09,712.64,712.58,710.32,711.62,710.41,711.96,709.08,708.37,706.93,706.70,706.20,705.28,705.27,705.28,704.10,702.87,702.33,703.44,704.37,703.63,703.58,702.90,703.19,702.96,702.72,702.95,702.75,704.20,703.00,702.98,701.20,703.04,702.86,703.64,702.23,701.58,700.25,701.52,702.50,704.39,703.31,704.24,704.54,704.08,701.93,701.35,702.71,703.87,704.64,706.07,707.21,706.51,704.40,704.90,705.66,705.14,703.27,703.30,704.81,706.62,707.06,706.57,705.90,705.60,706.27,706.19,704.76,703.05,701.17,701.17,701.94,701.05,698.78,695.37,693.73,691.79,689.74,686.74,684.80,683.01,682.78,682.34,682.15,680.20,678.96,678.86,679.78,679.39,677.19,676.40,675.15,675.05,672.32,671.96,669.82,668.67,665.43,664.20,662.37,660.18,659.62,659.21,658.57,656.02,654.03,653.74,652.13,651.38,649.39,647.23,645.81,644.61,643.81,640.41,635.96,631.96,628.39,625.48,621.53,616.27,611.85,607.72,603.94,599.99,597.38,596.41,593.71,590.81,590.14,588.09,585.93,579.07,571.26,559.47,0.00,0.00,0.00,0.00,0.00,0.00,0.00,0.00,0.00,0.00,0.00,0.00,0.00,0.00,0.00,0.00,0.00,0.00,0.00,0.00,0.00,0.00,0.00,0.00,0.00,0.00,0.00,0.00,0.00,0.00,0.00,0.00,0.00,0.00,0.00,0.00,0.00,0.00,0.00,0.00,0.00,0.00,0.00,0.00,0.00,0.00,0.00,0.00,0.00,0.00,0.00,0.00,0.00,0.00,0.00,0.00,0.00,0.00
0.00,0.00,0.00,0.00,0.00,0.00,0.00,0.00,0.00,0.00,0.00,0.00,0.00,0.00,0.00,0.00,0.00,0.00,0.00,0.00,0.00,0.00,0.00,0.00,0.00,1607.33,1623.71,1628.54,1631.64,1632.95,1636.02,1640.90,1642.55,1643.59,1643.25,1644.34,1644.71,1644.86,1642.89,1643.66,1643.80,1646.19,1645.29,1645.73,1646.63,1645.68,1645.06,1643.97,1643.65,1641.91,1641.39,1642.14,1645.08,1644.82,1644.16,1643.48,1644.18,1645.48,1646.24,1646.77,1648.39,1646.36,1646.16,1644.73,1645.62,1645.95,1646.37,1646.20,1646.93,1646.17,1648.83,1648.58,1650.52,1648.68,1648.31,1648.47,1649.89,1649.70,1651.11,1651.48,1653.12,1651.05,1651.38,1650.54,1652.06,1650.89,1651.21,1651.01,1653.17,1654.03,1654.59,1654.47,1654.46,1653.99,1654.15,1653.52,1653.67,1654.08,0.00,0.00,0.00,0.00,1302.56,0.00,0.00,0.00,0.00,0.00,0.00,0.00,0.00,0.00,0.00,0.00,0.00,0.00,0.00,0.00,0.00,0.00,0.00,0.00,0.00,0.00,0.00,0.00,0.00,0.00,0.00,0.00,0.00,0.00,0.00,0.00,0.00,0.00,0.00,0.00,0.00,0.00,0.00,0.00,0.00,0.00,0.00,0.00,1649.90,1665.59,1675.31,1679.83,1682.24,1685.55,1687.39,1687.54,1686.21,1687.58,1688.54,1689.02,1689.66,1691.66,1695.01,1696.62,1698.23,1698.23,1698.48,1698.40,1699.96,1703.72,1705.93,1709.34,1714.23,1722.57,0.00,0.00,0.00,0.00,0.00,0.00,0.00,0.00,0.00,655.54,700.70,711.45,716.71,718.75,721.43,721.72,722.30,721.21,719.91,718.84,718.27,717.58,716.39,715.88,715.52,715.32,714.70,713.68,712.37,712.53,711.60,711.49,710.42,711.25,712.03,711.55,709.98,708.57,708.14,706.70,706.76,706.46,707.85,706.47,705.85,704.60,701.79,700.51,698.93,697.75,695.07,693.71,692.44,689.27,685.20,681.98,680.48,679.69,679.05,676.41,673.36,670.29,669.53,670.80,669.34,666.80,661.84,657.87,656.49,656.10,657.19,655.71,655.28,654.72,655.10,654.76,655.03,655.79,657.60,661.62,666.71,669.34,670.37,671.61,676.69,682.72,688.54,693.26,698.19,704.40,711.05,715.48,718.21,717.09,717.37,715.45,714.53,711.84,708.71,704.79,701.43,698.96,696.92,694.77,693.45,693.13,690.33,688.14,687.07,689.95,691.85,694.06,694.03,696.84,698.97,703.43,704.92,705.76,706.79,707.60,709.05,710.96,711.32,710.32,710.75,711.11,711.43,709.81,711.01,710.55,711.80,711.30,712.24,709.28,709.37,707.97,708.97,707.13,707.05,706.72,705.79,704.25,703.57,703.91,704.18,703.16,702.15,702.31,702.97,703.49,702.81,702.65,702.33,702.65,702.37,702.53,702.68,703.60,704.14,702.12,701.26,700.57,702.81,702.38,703.36,702.60,702.07,700.25,701.29,701.49,702.79,702.20,702.95,703.40,703.22,702.00,700.88,701.81,703.17,703.81,704.38,705.08,705.25,703.31,703.21,703.48,703.34,702.43,701.62,702.47,704.23,706.11,706.83,705.35,704.07,703.63,703.41,702.64,701.47,699.67,698.76,698.20,697.66,694.66,691.89,689.41,688.40,686.65,685.40,682.93,681.30,681.33,681.34,680.92,679.09,677.12,677.46,677.74,678.75,676.77,676.44,674.44,673.72,670.90,670.15,667.59,665.97,661.82,660.56,659.20,657.96,655.57,654.51,655.33,655.61,654.05,653.07,650.98,650.48,648.68,646.62,643.82,642.59,640.73,638.96,634.68,632.40,629.03,624.69,619.29,614.12,610.62,607.30,603.11,602.07,600.88,602.04,598.72,596.05,594.20,593.63,593.46,590.50,586.16,577.90,566.28,0.00,0.00,0.00,0.00,0.00,0.00,0.00,0.00,0.00,0.00,0.00,0.00,0.00,0.00,0.00,0.00,0.00,0.00,0.00,0.00,0.00,0.00,0.00,0.00,0.00,0.00,0.00,0.00,0.00,0.00,0.00,0.00,0.00,0.00,0.00,0.00,0.00,0.00,0.00,0.00,0.00,0.00,0.00,0.00,0.00,0.00,0.00,0.00,0.00,0.00,0.00,0.00,0.00,0.00,0.00,0.00,0.00
0.00,0.00,0.00,0.00,0.00,0.00,0.00,0.00,0.00,0.00,0.00,0.00,0.00,0.00,0.00,0.00,0.00,0.00,0.00,0.00,0.00,0.00,0.00,0.00,0.00,1599.92,1618.59,1625.43,1628.83,1631.11,1633.83,1637.45,1639.47,1640.33,1643.10,1644.78,1646.41,1645.06,1643.53,1643.37,1642.79,1643.47,1643.67,1643.96,1645.38,1645.52,1644.44,1643.04,1641.70,1642.15,1641.43,1641.38,1643.37,1643.34,1642.95,1642.10,1642.88,1644.43,1645.07,1646.32,1647.79,1646.09,1646.28,1644.92,1645.88,1645.49,1645.62,1646.57,1646.78,1646.68,1648.04,1647.63,1649.38,1647.92,1648.08,1648.54,1649.37,1650.09,1650.26,1650.56,1651.22,1650.70,1652.04,1652.18,1652.45,1650.92,1650.87,1651.28,1652.89,1653.28,1653.57,1654.47,1655.37,1655.57,1654.61,1654.04,1653.89,1657.89,0.00,0.00,0.00,0.00,1294.24,0.00,0.00,0.00,0.00,0.00,0.00,0.00,0.00,0.00,0.00,0.00,0.00,0.00,0.00,0.00,0.00,0.00,0.00,0.00,0.00,0.00,0.00,0.00,0.00,0.00,0.00,0.00,0.00,0.00,0.00,0.00,0.00,0.00,0.00,0.00,0.00,0.00,0.00,0.00,0.00,0.00,0.00,0.00,0.00,1642.08,1668.06,1676.82,1680.67,1683.35,1685.08,1686.90,1686.68,1689.06,1690.22,1689.07,1689.33,1690.13,1693.49,1694.33,1696.57,1696.78,1697.06,1697.24,1699.42,1704.00,1706.16,1707.41,1710.47,0.00,0.00,0.00,0.00,0.00,0.00,0.00,0.00,0.00,602.65,697.27,712.73,718.79,721.10,720.45,721.11,721.81,721.70,719.37,717.00,715.84,716.22,715.65,715.14,715.16,715.44,714.44,712.78,710.95,709.71,710.09,710.21,710.63,709.66,709.26,708.75,708.69,708.65,709.11,708.39,706.37,705.66,705.79,706.92,705.59,704.50,703.75,700.61,698.50,696.79,695.99,693.38,690.98,690.35,687.21,684.08,678.01,675.75,672.84,673.41,672.04,670.22,667.82,667.77,667.81,665.79,660.38,657.90,654.36,655.40,654.10,654.26,651.62,651.35,651.19,651.29,649.63,649.89,650.59,652.09,655.09,658.66,661.82,663.96,665.66,669.36,672.86,679.42,686.33,692.71,697.79,704.39,710.65,714.47,714.16,714.34,712.81,710.98,709.07,706.65,703.36,700.09,698.10,696.17,694.32,691.25,690.67,688.05,687.63,685.16,686.52,686.58,689.04,687.50,690.48,692.53,700.14,704.27,708.46,709.73,709.87,711.87,713.19,712.84,711.77,710.85,710.37,709.30,709.05,710.41,708.91,709.44,708.55,710.57,707.89,707.76,706.57,706.91,705.18,704.66,704.07,703.35,701.56,700.76,701.16,702.32,702.34,0.00,701.27,702.46,701.74,699.99,699.06,700.89,703.11,703.21,702.49,701.77,702.95,703.17,700.57,699.34,698.52,700.61,700.77,700.61,699.42,697.91,698.64,700.33,701.62,701.57,700.83,700.69,699.97,700.93,700.44,700.71,699.24,701.29,702.24,703.63,703.18,703.82,702.39,701.45,701.37,701.12,700.85,699.15,699.82,700.64,702.86,703.27,701.65,700.60,700.20,700.14,697.81,695.78,695.34,694.63,693.40,691.63,688.31,687.18,685.77,685.12,683.26,682.20,681.62,680.49,680.38,679.59,679.51,677.24,675.71,674.58,675.99,676.20,675.16,673.37,672.03,670.72,668.10,665.74,663.55,661.04,657.91,655.92,655.46,653.97,651.19,649.57,650.88,653.15,653.39,652.42,649.96,648.04,645.43,643.49,640.56,640.34,637.09,634.99,630.97,629.55,627.26,622.85,617.40,612.92,610.11,607.63,604.78,603.57,602.26,602.23,599.30,597.19,596.30,596.44,597.14,594.41,592.66,587.40,580.31,568.73,554.98,541.77,0.00,0.00,0.00,0.00,0.00,0.00,0.00,0.00,0.00,0.00,0.00,0.00,0.00,0.00,0.00,0.00,0.00,0.00,0.00,0.00,0.00,0.00,0.00,0.00,0.00,0.00,0.00,0.00,0.00,0.00,0.00,0.00,0.00,0.00,0.00,0.00,0.00,0.00,0.00,0.00,0.00,0.00,0.00,0.00,0.00,0.00,0.00,0.00,0.00,0.00,0.00,0.00,0.00,0.00
0.00,0.00,0.00,0.00,0.00,0.00,0.00,0.00,0.00,0.00,0.00,0.00,0.00,0.00,0.00,0.00,0.00,0.00,0.00,0.00,0.00,0.00,0.00,0.00,0.00,1595.82,1615.98,1623.41,1626.65,1630.01,1632.67,1635.42,1636.80,1637.76,1640.59,1643.67,1645.38,1645.98,1643.21,1642.81,1640.04,1641.77,1641.06,1642.54,1641.79,1643.22,1641.74,1641.79,1639.79,1641.70,1641.22,1640.39,1640.34,1639.49,1640.50,1639.58,1641.01,1643.20,1642.80,1643.19,1643.54,1644.32,1644.87,1643.56,1644.35,1644.38,1644.73,1644.32,1644.14,1644.38,1645.09,1644.33,1645.34,1645.90,1647.70,1647.97,1647.57,1647.99,1647.88,1648.96,1648.43,1649.61,1651.11,1651.79,1649.38,1648.37,1648.35,1650.96,1651.27,1651.78,1652.03,1652.90,1654.48,1654.04,1653.12,1651.63,1651.85,1653.01,0.00,0.00,0.00,0.00,1291.15,0.00,0.00,1311.53,0.00,0.00,1628.79,0.00,0.00,0.00,0.00,0.00,0.00,0.00,0.00,0.00,0.00,0.00,0.00,0.00,0.00,0.00,0.00,0.00,0.00,0.00,0.00,0.00,0.00,0.00,0.00,0.00,0.00,0.00,0.00,0.00,0.00,0.00,0.00,0.00,0.00,0.00,0.00,0.00,0.00,0.00,0.00,1667.38,1673.15,1677.13,1680.31,1682.78,1683.54,1686.72,1688.65,1688.72,1687.68,1686.82,1688.49,1689.21,1691.61,1691.91,1693.08,1693.56,1695.55,1699.24,1702.82,1706.60,0.00,0.00,0.00,0.00,0.00,0.00,0.00,0.00,0.00,0.00,667.22,706.21,715.91,719.41,720.26,719.92,719.93,720.28,718.91,716.35,713.87,712.80,712.89,713.30,714.05,714.93,714.30,712.96,711.21,709.57,707.70,707.46,707.92,709.17,708.35,708.50,707.93,708.17,706.46,706.52,705.86,705.25,704.89,704.52,704.23,702.99,702.25,703.21,700.50,699.71,696.06,694.51,689.49,687.48,687.12,685.17,681.88,675.41,672.76,670.51,670.48,668.25,666.13,664.26,664.28,662.57,658.56,655.45,654.50,653.93,652.79,650.38,648.95,648.59,648.59,647.71,646.48,644.66,645.89,645.59,646.60,648.17,652.06,656.85,659.68,662.48,664.58,666.50,670.52,677.79,685.97,691.94,697.22,705.41,710.03,711.89,711.08,710.59,708.40,706.47,703.60,701.62,698.50,696.13,692.89,691.76,688.67,687.42,684.41,684.64,682.35,682.05,680.86,682.08,679.83,682.54,683.46,690.25,692.68,698.87,703.21,706.88,709.62,710.22,709.55,709.44,708.32,707.95,706.36,706.63,706.69,704.30,704.46,704.70,706.72,705.04,703.43,701.90,701.55,701.82,702.00,700.41,699.21,698.16,698.69,698.29,698.30,697.69,696.94,697.23,698.71,697.97,696.31,696.54,698.96,702.00,700.91,699.94,699.27,700.33,700.42,698.96,698.33,697.83,696.49,696.69,696.60,697.15,696.20,697.32,698.78,698.92,697.56,697.82,697.43,697.44,696.64,696.75,697.31,695.93,698.30,697.78,700.04,699.36,700.44,698.97,698.07,698.93,699.07,697.37,696.14,696.06,698.73,698.99,698.87,697.09,696.69,695.28,693.87,691.51,690.63,689.74,688.40,687.11,686.13,683.78,682.98,680.88,678.90,677.64,677.65,678.42,677.71,677.07,676.11,675.27,674.62,673.55,672.66,672.67,672.49,672.17,670.13,668.80,666.79,664.34,661.81,659.44,657.57,655.46,652.94,652.35,650.19,648.73,647.15,649.04,649.80,649.92,648.17,645.86,643.30,640.97,639.69,636.60,635.17,632.74,631.28,628.66,626.60,624.12,619.47,615.32,611.34,608.33,605.14,601.75,600.63,598.79,597.70,594.95,595.38,596.70,597.65,596.39,593.48,592.26,588.59,583.22,575.31,567.84,561.64,553.31,544.74,536.99,0.00,0.00,0.00,0.00,0.00,0.00,0.00,0.00,0.00,0.00,0.00,0.00,0.00,0.00,0.00,0.00,0.00,0.00,0.00,0.00,0.00,0.00,0.00,0.00,0.00,0.00,0.00,0.00,0.00,0.00,0.00,0.00,0.00,0.00,0.00,0.00,0.00,0.00,0.00,0.00,0.00,0.00,0.00,0.00,0.00,0.00,0.00,0.00,0.00,0.00,0.00
0.00,0.00,0.00,0.00,0.00,0.00,0.00,0.00,0.00,0.00,0.00,0.00,0.00,0.00,0.00,0.00,0.00,0.00,0.00,0.00,0.00,0.00,0.00,0.00,0.00,1590.64,1613.59,1622.12,1626.19,1628.98,1631.34,1632.63,1636.00,1638.09,1641.35,1641.72,1645.65,1646.91,1647.48,1644.41,1642.89,1642.63,1640.94,1639.99,1639.31,1642.19,1642.94,1643.65,1642.13,1642.39,1642.01,1641.42,1642.26,1641.35,1642.42,1641.52,1643.14,1644.38,1643.73,1643.10,1643.86,1644.47,1645.84,1644.14,1644.31,1643.34,1644.43,1644.21,1644.97,1645.30,1645.94,1644.13,1644.72,1645.92,1648.19,1646.68,1646.50,1646.81,1648.36,1648.49,1648.66,1650.32,1651.73,1651.58,1649.03,1649.30,1650.53,1653.44,1652.85,1651.85,1651.61,1652.97,1655.32,1654.85,1653.84,1652.37,1652.42,1653.29,0.00,0.00,0.00,0.00,1302.04,1323.28,0.00,1317.20,0.00,0.00,1628.39,1640.54,0.00,0.00,0.00,0.00,0.00,0.00,0.00,0.00,0.00,0.00,0.00,0.00,0.00,0.00,0.00,0.00,0.00,0.00,0.00,0.00,0.00,0.00,0.00,0.00,0.00,0.00,0.00,0.00,0.00,0.00,0.00,0.00,0.00,0.00,0.00,0.00,0.00,0.00,0.00,0.00,1663.16,1672.05,1678.32,1682.36,1684.74,1688.00,1689.78,1689.81,1689.36,1689.51,1690.15,1690.20,1690.94,1691.04,1692.59,1694.99,1698.83,1702.06,1704.70,0.00,0.00,0.00,0.00,0.00,0.00,0.00,0.00,0.00,0.00,632.91,698.41,711.60,719.89,722.08,722.71,721.26,720.68,720.31,719.69,716.48,714.88,713.01,714.08,714.06,715.58,715.60,715.74,714.72,713.63,711.24,709.37,707.41,708.00,709.15,710.29,710.32,709.81,709.01,706.80,706.95,707.02,707.37,706.23,705.56,705.62,704.35,703.24,703.24,701.71,700.73,697.08,694.23,688.83,686.61,686.41,686.02,683.08,677.04,675.05,672.52,671.79,668.56,666.37,665.09,663.69,660.84,657.35,654.46,654.46,654.01,653.42,651.01,649.39,648.54,647.92,647.00,646.86,645.52,647.37,645.73,646.41,645.49,648.81,651.16,655.81,658.37,662.24,662.77,666.51,670.83,679.14,686.66,694.79,702.37,706.88,709.53,709.94,709.84,708.62,706.68,704.98,702.01,698.82,695.61,693.83,693.60,691.80,690.07,686.18,685.45,682.87,683.01,681.13,681.67,678.70,680.07,680.01,683.52,683.87,688.10,694.09,700.57,706.07,708.37,709.36,710.37,709.42,708.86,707.61,708.83,707.85,705.29,705.03,706.11,707.30,704.99,703.28,701.99,701.94,701.47,702.32,701.49,702.19,701.52,701.77,698.58,697.98,697.16,698.56,698.25,699.63,699.65,698.23,698.67,699.61,702.07,701.00,700.50,701.30,701.25,701.27,698.85,699.71,699.74,699.84,698.84,698.78,698.91,699.10,700.63,701.51,700.54,697.77,697.47,697.05,696.89,696.26,696.15,696.87,695.33,697.22,696.36,698.07,696.93,697.78,697.35,697.20,698.29,698.12,696.89,696.33,696.91,698.11,696.67,695.13,693.06,691.33,688.30,687.42,685.61,686.17,685.56,685.00,683.73,682.56,680.32,680.62,679.40,677.77,675.49,674.61,675.59,675.92,676.04,675.73,674.63,673.83,673.43,672.10,673.06,671.61,671.49,668.19,666.00,664.95,662.95,661.00,657.31,655.57,653.83,652.39,651.52,649.99,649.23,648.36,649.27,649.35,649.11,647.82,645.89,643.15,640.75,638.16,634.88,633.49,632.46,630.42,627.39,624.70,622.67,619.60,616.02,612.21,608.99,606.33,603.95,601.01,598.15,596.32,594.31,595.64,596.87,598.79,596.88,594.66,592.65,592.45,589.92,584.88,578.13,574.24,569.13,564.92,560.33,555.00,544.65,529.65,0.00,0.00,0.00,0.00,0.00,0.00,0.00,0.00,0.00,0.00,0.00,0.00,0.00,0.00,0.00,0.00,0.00,0.00,0.00,0.00,0.00,0.00,0.00,0.00,0.00,0.00,0.00,0.00,0.00,0.00,0.00,0.00,0.00,0.00,0.00,0.00,0.00,0.00,0.00,0.00,0.00,0.00,0.00,0.00,0.00,0.00,0.00,0.00
0.00,0.00,0.00,0.00,0.00,0.00,0.00,0.00,0.00,0.00,0.00,0.00,0.00,0.00,0.00,0.00,0.00,0.00,0.00,0.00,0.00,0.00,0.00,0.00,0.00,0.00,1608.92,1619.10,1622.45,1625.54,1628.34,1631.15,1633.65,1636.06,1637.97,1639.18,1641.06,1642.15,1641.43,1641.31,1641.89,1643.46,1640.49,1639.14,1636.98,1640.34,1640.50,1641.64,1639.39,1638.88,1638.73,1639.65,1639.47,1638.87,1639.28,1640.34,1641.42,1641.96,1641.61,1641.06,1641.04,1641.07,1641.49,1642.16,1641.76,1642.04,1642.00,1641.60,1642.11,1642.71,1644.23,1642.48,1642.32,1643.82,1645.44,1643.55,1643.46,1644.48,1646.46,1646.90,1646.92,1648.31,1647.59,1647.17,1646.08,1647.42,1649.46,1651.82,1651.41,1650.61,1649.91,1650.63,1651.40,1650.41,1649.95,1649.34,1650.07,1651.16,1654.58,0.00,0.00,0.00,1308.43,1317.43,0.00,0.00,0.00,0.00,1622.43,1636.95,1641.08,0.00,0.00,0.00,0.00,0.00,0.00,0.00,0.00,0.00,0.00,0.00,0.00,0.00,0.00,0.00,0.00,0.00,0.00,0.00,0.00,0.00,0.00,0.00,0.00,0.00,0.00,0.00,0.00,0.00,0.00,0.00,0.00,0.00,0.00,0.00,0.00,0.00,0.00,0.00,0.00,1660.81,1671.09,1675.62,1679.08,1682.10,1684.25,1685.33,1685.64,1686.90,1687.85,1687.65,1688.29,1688.87,1692.20,1695.13,1699.24,1701.62,0.00,0.00,0.00,0.00,0.00,0.00,0.00,0.00,0.00,0.00,671.70,694.98,706.06,711.21,715.67,717.94,719.97,719.23,718.36,717.16,717.47,715.42,713.99,711.68,712.35,712.51,713.98,712.99,712.97,712.65,712.41,711.53,709.34,707.44,706.12,707.87,708.83,709.66,709.00,708.00,705.40,704.66,704.98,705.60,704.49,703.57,703.92,703.41,703.02,701.93,700.11,698.81,694.79,693.12,688.30,687.47,685.07,683.74,679.83,675.54,672.84,671.31,670.20,667.47,665.03,662.86,660.80,658.24,655.79,654.50,653.35,652.30,648.76,647.68,646.36,646.11,643.60,642.05,641.79,642.08,643.70,642.47,642.22,641.40,644.02,645.97,648.12,649.98,654.02,657.48,662.40,665.75,671.56,678.06,686.38,695.26,700.02,703.55,704.37,705.02,703.79,703.39,701.71,700.12,696.53,693.67,691.49,690.36,689.95,688.32,685.36,683.11,681.24,680.19,678.18,677.46,675.94,675.78,674.47,675.06,674.28,676.76,680.30,687.33,693.28,698.67,702.46,704.96,706.20,706.17,705.08,705.78,703.36,702.83,701.89,704.41,704.24,702.56,700.86,699.51,699.30,698.73,699.04,698.41,698.86,699.47,699.47,695.93,694.31,693.63,695.80,696.47,696.93,697.52,696.05,697.78,696.79,698.09,696.62,697.11,698.26,697.65,697.22,696.76,698.33,699.09,698.10,696.64,696.72,697.48,698.33,699.15,697.96,695.93,693.81,694.47,694.18,694.12,692.92,693.43,692.70,692.29,692.88,692.32,692.83,692.40,693.82,693.47,693.47,694.33,695.14,694.24,694.10,694.07,693.13,689.15,687.18,685.58,684.57,682.52,681.35,679.66,679.72,679.28,679.15,678.28,677.69,676.70,676.85,675.76,674.62,673.03,672.61,672.40,672.92,673.19,673.26,671.29,670.38,670.18,670.07,670.03,667.75,666.55,664.03,660.96,659.89,658.73,656.77,653.55,650.78,649.93,648.21,648.32,648.11,648.53,648.70,648.75,648.03,646.05,644.30,641.76,639.39,638.23,635.60,632.59,629.76,629.37,626.97,624.54,621.95,620.77,618.56,614.02,609.11,604.66,602.61,600.66,598.35,596.40,593.78,591.84,592.88,593.18,595.20,592.92,593.20,590.60,591.18,589.90,587.27,582.16,579.45,576.56,573.96,571.37,567.43,564.21,555.17,541.19,0.00,0.00,0.00,0.00,0.00,0.00,0.00,0.00,0.00,0.00,0.00,0.00,0.00,0.00,0.00,0.00,0.00,0.00,0.00,0.00,0.00,0.00,0.00,0.00,0.00,0.00,0.00,0.00,0.00,0.00,0.00,0.00,0.00,0.00,0.00,0.00,0.00,0.00,0.00,0.00,0.00,0.00,0.00,0.00,0.00,0.00,0.00
0.00,0.00,0.00,0.00,0.00,0.00,0.00,0.00,0.00,0.00,0.00,0.00,0.00,0.00,0.00,0.00,0.00,0.00,0.00,0.00,0.00,0.00,0.00,0.00,0.00,0.00,1601.70,1616.33,1621.58,1625.30,1628.52,1630.75,1633.23,1634.78,1636.35,1635.75,1637.08,1637.19,1639.48,1640.20,1641.12,1642.16,1641.63,1640.97,1639.17,1640.29,1641.51,1641.33,1639.76,1637.79,1638.11,1640.12,1640.64,1640.57,1639.85,1640.74,1641.61,1640.62,1641.28,1640.16,1640.77,1640.10,1640.51,1641.71,1641.27,1641.37,1641.48,1641.83,1643.27,1644.20,1645.60,1644.44,1643.68,1644.68,1645.63,1644.00,1644.58,1646.12,1649.00,1648.32,1648.07,1648.07,1647.13,1646.86,1647.48,1649.27,1651.19,1651.41,1651.27,1650.02,1650.07,1649.98,1650.95,1650.47,1650.67,1650.11,1650.62,1651.98,1654.31,0.00,0.00,0.00,1330.94,1310.50,0.00,0.00,0.00,0.00,1616.15,1636.00,1643.53,1641.43,0.00,0.00,0.00,0.00,0.00,0.00,0.00,0.00,0.00,0.00,0.00,0.00,0.00,0.00,0.00,0.00,0.00,0.00,0.00,0.00,0.00,0.00,0.00,0.00,0.00,0.00,0.00,0.00,0.00,0.00,0.00,0.00,0.00,0.00,0.00,0.00,0.00,0.00,0.00,0.00,1660.14,1670.83,1676.47,1680.28,1682.33,1683.32,1684.76,1686.91,1688.46,1688.35,1689.36,1691.16,1696.92,1701.82,0.00,0.00,0.00,0.00,0.00,0.00,0.00,0.00,0.00,0.00,0.00,674.49,700.32,708.31,712.83,713.41,715.40,717.78,720.33,718.90,718.25,717.32,718.57,716.12,714.98,713.46,714.41,712.67,712.85,711.12,712.18,712.05,713.09,713.22,711.49,709.43,707.35,708.23,708.95,0.00,708.23,707.26,707.26,706.77,706.15,704.41,702.55,701.66,703.23,703.70,702.77,699.95,696.95,694.11,691.08,690.59,689.88,688.76,686.90,683.50,679.68,675.48,672.22,669.50,667.74,665.83,664.49,662.45,661.22,659.59,658.82,656.16,653.26,650.34,647.75,645.44,644.09,643.21,642.62,640.25,639.92,639.89,641.96,641.14,640.48,639.86,641.19,642.45,644.31,646.38,650.31,653.52,659.32,661.82,667.51,673.53,682.89,690.95,695.47,699.11,700.98,702.92,702.10,701.89,700.55,699.26,695.68,693.34,692.01,691.20,690.41,688.28,686.35,684.37,683.35,681.68,678.94,677.49,676.02,674.76,673.52,672.32,673.13,674.15,676.68,678.57,682.03,688.44,694.43,699.60,702.59,704.91,704.80,705.82,703.19,703.86,702.74,705.09,705.15,703.40,703.66,702.01,703.02,700.44,700.45,699.67,701.77,701.56,700.80,697.20,697.32,697.33,699.90,0.00,699.07,698.42,697.84,698.91,696.81,696.43,695.75,697.48,698.69,697.00,695.93,695.07,697.45,698.73,700.19,698.99,699.38,698.88,699.19,699.63,697.61,695.85,694.56,694.55,694.19,693.31,693.07,692.86,692.21,692.46,692.75,692.65,691.54,690.89,692.29,693.10,693.65,693.44,694.25,694.46,693.59,691.34,687.50,683.88,683.13,681.86,681.17,679.98,679.78,678.45,678.19,677.66,677.58,676.57,676.19,675.89,677.35,676.30,675.23,672.46,672.81,672.52,673.26,672.83,671.96,670.44,668.57,669.31,668.52,668.92,665.43,663.30,660.32,657.09,657.01,655.94,653.93,651.63,649.20,648.93,646.60,647.40,647.81,647.55,647.11,646.12,646.68,644.55,643.07,640.23,638.63,637.00,634.55,631.60,629.34,628.46,625.98,622.86,620.91,620.10,618.65,613.41,608.31,603.85,601.91,600.73,598.90,597.01,594.38,593.18,593.57,593.12,594.59,593.95,594.33,591.25,592.49,592.03,592.42,588.67,586.45,583.13,580.90,578.46,575.79,574.60,568.52,556.01,0.00,0.00,0.00,0.00,0.00,0.00,0.00,0.00,0.00,0.00,0.00,0.00,0.00,0.00,0.00,0.00,0.00,0.00,0.00,0.00,0.00,0.00,0.00,0.00,0.00,0.00,0.00,0.00,0.00,0.00,0.00,0.00,0.00,0.00,0.00,0.00,0.00,0.00,0.00,0.00,0.00,0.00,0.00,0.00,0.00,0.00,0.00
0.00,0.00,0.00,0.00,0.00,0.00,0.00,0.00,0.00,0.00,0.00,0.00,0.00,0.00,0.00,0.00,0.00,0.00,0.00,0.00,0.00,0.00,0.00,0.00,0.00,0.00,1596.26,1612.85,1619.52,1624.17,1627.33,1629.50,1630.49,1631.76,1633.01,1634.18,1633.98,1633.50,1633.61,1635.08,1635.66,1638.34,1639.87,1642.25,1640.77,1641.03,1640.31,1638.35,1636.36,1634.73,1636.45,1636.83,1636.64,1635.94,1637.39,1638.51,1639.08,1638.23,1638.96,1638.57,1637.68,1636.69,1636.21,1638.30,1639.86,1641.30,1640.24,1639.81,1639.36,1641.36,1642.47,1642.81,1641.66,1642.27,1642.83,1642.01,1642.34,1644.49,1645.91,1645.77,1644.99,1645.43,1644.42,1643.70,1644.55,1645.74,1648.08,1647.95,1649.10,1648.96,1649.73,1648.62,1648.43,1647.36,1647.42,1646.57,1647.36,1648.20,1650.90,0.00,0.00,0.00,0.00,1294.99,0.00,0.00,1315.79,0.00,0.00,1632.25,1641.09,1640.90,0.00,0.00,0.00,0.00,0.00,0.00,0.00,0.00,0.00,0.00,0.00,0.00,0.00,0.00,0.00,0.00,0.00,0.00,0.00,0.00,0.00,0.00,0.00,0.00,0.00,0.00,0.00,0.00,0.00,0.00,0.00,0.00,0.00,0.00,0.00,0.00,0.00,0.00,0.00,0.00,0.00,1656.80,1668.32,1673.89,1677.12,1679.01,1680.14,1682.87,1684.78,1685.75,1687.89,1691.45,0.00,0.00,0.00,0.00,0.00,0.00,0.00,0.00,0.00,0.00,0.00,0.00,0.00,696.84,706.95,712.68,714.30,714.13,714.15,715.24,716.59,715.27,715.16,715.13,716.37,715.43,713.15,712.46,711.87,709.72,708.03,705.92,707.56,708.38,711.01,711.27,710.15,708.88,706.56,707.17,705.78,706.69,705.82,706.69,706.55,705.55,703.59,702.37,700.65,699.95,700.03,700.15,699.06,696.39,693.66,691.51,689.42,689.66,689.47,688.53,685.15,680.80,676.76,673.56,669.45,665.61,664.46,663.69,662.32,659.25,658.75,657.93,655.69,652.38,649.74,647.50,643.77,641.00,640.97,641.04,640.84,638.85,637.92,639.13,640.24,639.76,638.05,637.43,637.39,637.85,638.94,642.29,645.16,647.71,650.64,654.17,659.69,667.49,676.37,686.46,690.45,695.19,695.77,697.55,695.87,696.99,696.46,696.63,693.53,692.90,690.96,689.68,686.96,685.11,683.94,683.07,682.19,680.06,677.20,675.46,673.47,671.19,669.72,669.35,670.99,671.55,672.39,671.53,672.34,674.95,681.18,687.84,695.01,698.85,699.80,701.24,699.17,698.44,697.08,698.74,700.86,700.77,701.41,699.06,699.47,697.59,698.02,696.56,698.11,697.10,696.57,694.45,694.82,694.40,696.19,696.31,696.85,695.25,694.20,695.63,695.22,694.88,692.93,693.77,694.18,693.72,692.54,692.44,693.59,694.45,695.96,696.25,697.11,696.31,695.01,694.83,692.65,691.85,691.15,692.43,692.03,692.30,691.71,691.88,690.33,690.47,691.40,691.57,692.22,691.34,691.89,690.12,690.11,689.20,689.69,686.56,685.41,683.68,682.46,678.97,678.07,677.93,678.06,676.92,675.82,675.48,674.47,673.31,672.65,673.16,673.42,673.65,673.78,672.87,671.95,670.65,671.65,671.10,671.12,669.73,668.11,666.77,665.69,665.77,664.49,662.76,659.97,656.48,654.98,651.80,652.49,651.39,649.31,647.43,644.90,645.83,642.93,644.32,644.43,645.74,644.45,643.17,643.03,641.58,640.10,637.31,635.05,633.81,631.27,628.49,625.19,624.25,621.76,618.60,615.37,614.27,613.47,610.19,606.25,601.63,599.26,597.95,597.00,595.85,592.44,589.84,588.32,588.07,588.91,589.45,589.31,588.04,587.93,587.98,589.48,589.11,588.42,585.50,582.77,580.38,578.93,578.69,572.95,559.75,530.41,0.00,0.00,0.00,0.00,0.00,0.00,0.00,0.00,0.00,0.00,0.00,0.00,0.00,0.00,0.00,0.00,0.00,0.00,0.00,0.00,0.00,0.00,0.00,0.00,0.00,0.00,0.00,0.00,0.00,0.00,0.00,0.00,0.00,0.00,0.00,0.00,0.00,0.00,0.00,0.00,0.00,0.00,0.00,0.00,0.00,0.00
0.00,0.00,0.00,0.00,0.00,0.00,0.00,0.00,0.00,0.00,0.00,0.00,0.00,0.00,0.00,0.00,0.00,0.00,0.00,0.00,0.00,0.00,0.00,0.00,0.00,0.00,1591.29,1611.42,1620.22,1624.50,1627.24,1629.14,1629.88,1631.56,1632.65,1632.11,1632.08,1633.15,1636.11,1637.39,1636.04,1636.99,1639.16,1641.52,1641.03,1639.30,1639.82,1637.92,1639.28,1638.06,1639.04,1637.37,1636.99,1636.89,1638.32,1638.14,1638.22,1638.02,1638.71,1638.45,1637.75,1638.00,1637.48,1638.17,1639.45,1640.64,1639.71,1639.10,1639.65,1641.87,1642.52,1642.13,1641.55,1642.49,1643.98,1643.76,1643.50,1643.67,1645.10,1644.80,1644.56,1643.84,1643.96,1643.42,1645.21,1645.77,1647.49,1646.57,1648.08,1648.49,1649.53,1648.53,1648.42,1647.21,1647.40,1647.60,1648.76,1649.10,1649.16,0.00,0.00,0.00,0.00,1287.50,0.00,0.00,1313.99,0.00,0.00,1631.07,1643.42,1644.78,1643.52,1641.84,0.00,0.00,0.00,0.00,0.00,0.00,0.00,0.00,0.00,0.00,0.00,0.00,0.00,0.00,0.00,0.00,0.00,0.00,0.00,0.00,0.00,0.00,0.00,0.00,0.00,0.00,0.00,0.00,0.00,0.00,0.00,0.00,0.00,0.00,0.00,0.00,0.00,0.00,0.00,0.00,1652.46,1668.54,1674.48,1677.73,1679.07,1682.75,1685.42,1688.92,1691.32,0.00,0.00,0.00,0.00,0.00,0.00,0.00,0.00,0.00,0.00,0.00,0.00,679.43,699.30,707.48,712.70,714.89,716.50,716.90,717.69,716.57,715.59,714.36,715.59,715.67,715.50,713.97,713.52,714.34,713.60,710.74,708.20,706.60,708.24,708.87,711.13,710.49,710.20,708.65,708.48,707.56,707.44,707.66,708.49,708.80,708.01,707.07,705.35,704.06,702.85,701.67,700.85,698.65,697.15,695.56,693.61,690.63,688.97,688.83,689.37,688.06,684.13,680.37,675.83,672.04,668.85,664.71,664.24,662.27,662.01,659.74,659.79,658.24,654.92,651.44,649.28,647.11,644.10,640.70,641.32,640.03,640.15,637.31,635.85,635.97,637.83,638.74,638.68,637.49,637.73,638.62,640.68,643.06,644.31,645.69,647.57,650.22,655.74,663.67,673.72,682.11,687.16,691.71,694.14,696.03,696.21,696.42,696.05,695.07,692.49,692.02,691.91,691.57,689.17,686.95,685.54,684.87,683.39,682.00,678.67,676.21,673.02,671.30,671.21,672.19,674.22,672.36,671.50,667.64,667.53,668.83,673.62,677.77,682.39,687.77,693.34,698.95,700.42,698.86,697.41,697.67,700.74,700.15,700.79,698.79,699.75,698.23,699.41,698.06,699.30,697.33,698.10,696.27,697.32,695.79,697.21,696.62,697.03,695.68,695.77,696.25,695.89,694.72,693.99,695.03,695.80,695.35,694.20,692.32,692.51,692.53,694.03,694.45,695.55,694.76,693.53,692.86,692.48,691.66,691.32,692.04,692.43,692.90,691.69,691.96,690.80,691.85,691.92,691.98,691.61,690.79,690.00,689.10,688.23,686.65,685.63,682.79,681.73,680.40,679.90,677.72,676.67,677.15,677.05,676.39,674.99,675.13,674.71,674.29,673.19,673.17,672.91,673.17,673.29,672.10,671.35,670.46,671.34,670.82,669.33,668.07,666.19,665.79,664.44,664.57,663.05,661.44,658.44,655.06,653.06,649.95,650.84,649.16,648.94,646.09,644.78,644.95,643.94,644.59,644.25,644.35,642.09,640.08,639.48,638.57,637.32,634.90,633.87,632.03,629.46,625.41,622.61,621.56,619.96,616.23,612.79,611.01,610.83,609.35,606.54,603.02,600.57,599.19,597.42,594.96,591.91,590.14,588.85,588.82,588.09,587.66,585.52,583.79,585.08,587.09,590.51,591.40,592.81,590.15,587.80,584.43,583.45,579.97,572.13,554.21,524.15,0.00,0.00,0.00,0.00,0.00,0.00,0.00,0.00,0.00,0.00,0.00,0.00,0.00,0.00,0.00,0.00,0.00,0.00,0.00,0.00,0.00,0.00,0.00,0.00,0.00,0.00,0.00,0.00,0.00,0.00,0.00,0.00,0.00,0.00,0.00,0.00,0.00,0.00,0.00,0.00,0.00,0.00,0.00,0.00,0.00,0.00
0.00,0.00,0.00,0.00,0.00,0.00,0.00,0.00,0.00,0.00,0.00,0.00,0.00,0.00,0.00,0.00,0.00,0.00,0.00,0.00,0.00,0.00,0.00,0.00,0.00,0.00,1582.59,1606.44,1617.94,1622.04,1624.33,1626.11,1627.52,1629.75,1630.59,1630.32,1629.98,1631.32,1633.21,1634.46,1633.60,1634.35,1635.88,1638.29,1638.23,1638.09,1637.61,1636.14,1636.68,1636.02,1637.60,1635.39,1634.68,1633.23,1635.14,1635.54,1636.69,1637.46,1638.40,1638.41,1637.27,1636.39,1635.06,1635.25,1637.43,1639.76,1639.25,1638.46,1637.18,1639.70,1640.21,1640.69,1639.36,1640.42,1641.50,1642.76,1642.21,1642.09,1641.89,1641.57,1641.25,1640.43,1641.35,1641.39,1642.75,1642.87,1644.82,1645.32,1646.34,1646.69,1646.52,1646.35,1644.97,1644.21,1643.84,1645.92,1647.05,1647.27,1646.24,0.00,0.00,0.00,0.00,1285.56,0.00,0.00,1311.58,0.00,0.00,1630.25,1641.16,1643.44,1642.30,1641.97,0.00,0.00,0.00,0.00,0.00,0.00,0.00,0.00,0.00,0.00,0.00,0.00,0.00,0.00,0.00,0.00,0.00,0.00,0.00,0.00,0.00,0.00,0.00,0.00,0.00,0.00,0.00,0.00,0.00,0.00,0.00,0.00,0.00,0.00,0.00,0.00,0.00,0.00,0.00,0.00,0.00,0.00,0.00,1671.55,1674.59,1679.66,0.00,0.00,0.00,0.00,0.00,0.00,0.00,0.00,0.00,0.00,0.00,0.00,0.00,0.00,677.67,698.45,707.16,711.97,713.73,714.14,714.81,716.19,717.69,716.21,714.27,712.39,712.81,712.74,712.16,711.30,711.87,711.96,711.76,709.77,708.69,706.37,706.41,706.23,707.79,707.65,708.35,708.36,707.91,707.03,705.11,705.44,706.65,707.59,704.76,703.39,702.01,702.03,700.41,699.88,698.64,697.38,694.97,694.47,692.16,691.10,688.36,687.66,686.15,686.06,681.27,679.06,674.50,671.08,667.61,664.32,663.29,661.40,659.92,658.99,657.56,656.40,653.34,650.74,647.72,644.11,641.27,638.67,638.77,636.50,634.68,632.92,631.58,631.68,631.04,632.85,633.29,633.39,633.19,634.99,638.19,640.28,640.57,641.65,642.97,646.21,650.30,657.16,664.74,672.77,679.50,685.22,688.66,690.50,691.18,691.98,690.97,690.21,688.14,689.87,689.82,688.80,686.57,686.18,685.07,683.10,680.01,678.77,676.21,674.08,670.58,669.46,668.59,669.80,669.54,666.63,663.73,660.89,660.50,662.44,665.49,668.85,668.97,671.39,675.46,683.74,690.29,692.92,694.31,695.00,696.30,695.68,695.77,695.67,695.70,694.54,694.54,694.64,695.62,693.83,693.57,691.13,692.42,691.41,693.36,693.58,693.32,691.36,691.25,692.24,692.34,690.38,689.31,689.96,690.70,692.43,691.96,691.45,689.90,690.43,690.74,691.03,690.54,689.90,688.64,688.72,689.05,689.33,688.91,690.10,688.94,690.52,689.08,691.00,688.50,689.06,688.13,688.24,687.59,686.77,684.89,683.25,682.65,680.76,679.88,676.75,676.91,676.52,674.87,672.74,671.09,672.70,672.63,672.37,671.11,671.51,671.59,672.49,670.78,670.85,669.81,670.57,668.88,668.03,668.03,668.39,669.12,668.00,665.82,664.69,663.12,663.55,661.04,660.26,658.38,656.43,653.16,650.20,649.90,648.24,648.26,646.56,646.20,643.81,641.68,640.83,641.18,642.50,642.07,641.65,639.45,638.20,636.26,633.87,630.71,627.49,626.02,624.12,621.37,617.29,615.24,614.30,613.46,611.35,608.84,607.38,607.42,606.67,604.67,601.69,599.59,597.35,594.34,593.00,590.85,590.26,588.12,588.00,585.37,583.05,579.05,577.26,579.45,584.04,588.04,590.12,591.07,590.19,588.80,585.92,583.85,577.47,565.07,542.85,0.00,0.00,0.00,0.00,0.00,0.00,0.00,0.00,0.00,0.00,0.00,0.00,0.00,0.00,0.00,0.00,0.00,0.00,0.00,0.00,0.00,0.00,0.00,0.00,0.00,0.00,0.00,0.00,0.00,0.00,0.00,0.00,0.00,0.00,0.00,0.00,0.00,0.00,0.00,0.00,0.00,0.00,0.00,0.00,0.00,0.00,0.00
0.00,0.00,0.00,0.00,0.00,0.00,0.00,0.00,0.00,0.00,0.00,0.00,0.00,0.00,0.00,0.00,0.00,0.00,0.00,0.00,0.00,0.00,0.00,0.00,0.00,0.00,0.00,1601.01,1616.71,1621.05,1622.15,1623.82,1626.31,1629.29,1628.65,1627.92,1626.96,1630.97,1634.81,1636.56,1636.12,1637.32,1638.94,1639.05,1637.31,1637.26,1637.63,1637.59,1638.15,1637.04,1638.60,1636.47,1635.48,1634.30,1635.97,1636.85,1637.90,1637.68,1638.69,1638.49,1638.32,1636.82,1635.71,1635.78,1638.04,1639.26,1639.52,1638.54,1638.78,1640.39,1641.60,1641.10,1640.46,1640.90,1642.47,1644.13,1644.11,1643.80,1643.28,1642.53,1641.09,1639.42,1641.04,1642.74,1645.60,1645.02,1645.13,1644.72,1645.85,1646.14,1646.25,1646.24,1646.24,1645.35,1645.21,1647.36,1647.98,1647.85,1647.99,0.00,0.00,0.00,0.00,1297.34,1314.80,1328.22,1321.23,1339.77,0.00,1629.18,1641.64,1646.39,1646.78,1645.58,1644.47,0.00,0.00,0.00,0.00,0.00,0.00,0.00,0.00,0.00,0.00,0.00,0.00,0.00,0.00,0.00,0.00,0.00,0.00,0.00,0.00,0.00,0.00,0.00,0.00,0.00,0.00,0.00,0.00,0.00,0.00,0.00,0.00,0.00,0.00,0.00,0.00,0.00,0.00,0.00,0.00,0.00,0.00,0.00,0.00,0.00,0.00,0.00,0.00,0.00,0.00,0.00,0.00,0.00,0.00,0.00,0.00,0.00,0.00,677.02,696.15,704.56,709.97,713.82,715.40,715.60,715.71,716.33,717.85,716.38,715.10,713.32,713.30,712.33,710.69,708.88,711.08,710.90,712.72,710.47,712.60,710.80,710.87,708.84,709.38,709.69,710.65,709.32,708.44,706.62,706.77,705.69,707.80,707.13,706.06,703.99,703.82,702.25,701.42,700.20,699.99,698.70,696.72,693.84,690.93,689.08,688.39,687.04,686.91,687.52,684.33,681.23,674.86,671.13,667.61,665.38,663.35,661.04,660.38,659.67,657.69,655.19,654.10,652.09,647.70,642.45,639.54,637.78,637.25,633.45,631.68,629.76,628.86,628.30,627.53,629.67,631.20,633.06,633.40,634.15,636.26,638.37,640.37,642.00,643.77,645.71,649.79,654.68,660.62,665.70,673.72,679.38,684.32,686.77,689.47,690.22,688.83,687.34,685.11,686.12,686.40,685.82,685.16,684.74,685.39,682.87,681.20,678.47,675.99,672.84,670.83,669.84,669.41,669.46,668.65,665.15,662.35,660.81,661.09,662.56,662.92,662.74,660.82,660.45,662.87,667.53,674.89,683.10,690.58,695.52,697.42,697.28,697.59,697.96,697.20,694.82,694.16,694.84,0.00,0.00,695.01,0.00,694.56,693.27,694.29,693.56,693.82,693.15,693.91,693.53,693.02,690.92,690.99,691.72,692.24,692.37,691.76,691.36,690.34,690.36,690.38,690.06,689.84,688.25,688.50,688.87,689.99,689.87,689.22,690.21,688.85,689.66,687.97,689.59,687.39,688.98,687.06,686.16,683.22,682.50,680.39,679.36,680.02,679.25,678.23,675.69,676.03,676.13,673.11,671.04,669.77,671.37,671.47,672.11,672.04,673.17,673.31,674.43,671.78,670.53,669.16,669.94,669.26,668.43,669.08,668.57,668.33,666.67,665.27,664.60,663.28,662.98,660.25,659.31,656.23,653.63,650.08,649.40,650.27,648.78,647.69,645.60,645.84,644.59,643.10,641.29,640.38,641.02,641.38,640.01,637.07,633.36,629.28,624.64,620.83,617.21,616.41,616.88,617.01,614.76,613.05,611.87,611.70,610.39,610.16,609.06,608.85,606.33,604.41,602.40,601.10,599.25,595.52,593.02,591.21,592.32,592.20,591.85,588.57,584.03,579.53,576.21,579.32,584.35,589.74,593.02,594.34,593.29,591.52,587.15,582.17,570.58,552.87,0.00,0.00,0.00,0.00,0.00,0.00,0.00,0.00,0.00,0.00,0.00,0.00,0.00,0.00,0.00,0.00,0.00,0.00,0.00,0.00,0.00,0.00,0.00,0.00,0.00,0.00,0.00,0.00,0.00,0.00,0.00,0.00,0.00,0.00,0.00,0.00,0.00,0.00,0.00,0.00,0.00,0.00,0.00,0.00,0.00,0.00,0.00,0.00
0.00,0.00,0.00,0.00,0.00,0.00,0.00,0.00,0.00,0.00,0.00,0.00,0.00,0.00,0.00,0.00,0.00,0.00,0.00,0.00,0.00,0.00,0.00,0.00,0.00,0.00,0.00,1594.18,1612.31,1617.75,1619.09,1621.53,1624.42,1627.61,1626.87,1626.89,1626.67,1629.54,1631.50,1631.83,1632.42,1636.00,1637.48,1638.69,1636.53,1638.85,1637.53,1637.13,1634.41,1631.87,1633.92,1634.03,1634.06,1632.42,1634.40,1636.02,1635.85,1634.99,1635.54,1636.67,1637.26,1635.46,1634.49,1634.70,1637.22,1637.66,1637.64,1635.86,1635.85,1637.16,1638.62,1639.77,1639.44,1639.55,1639.09,1641.30,1642.21,1642.64,1641.46,1641.43,1640.41,1639.30,1640.33,1642.37,1643.84,1643.43,1643.38,1643.71,1644.32,1644.13,1644.59,1645.01,1644.44,1643.63,1643.05,1645.14,1645.43,1646.41,1647.85,1656.80,0.00,0.00,0.00,1303.86,1309.08,1327.66,1325.05,1329.39,0.00,1622.74,1638.54,1645.80,1644.94,1643.12,1642.25,1643.28,0.00,0.00,0.00,0.00,0.00,0.00,0.00,0.00,0.00,0.00,0.00,0.00,0.00,0.00,0.00,0.00,0.00,0.00,0.00,0.00,0.00,0.00,0.00,0.00,0.00,0.00,0.00,0.00,0.00,0.00,0.00,0.00,0.00,0.00,0.00,0.00,0.00,0.00,0.00,0.00,0.00,0.00,0.00,0.00,0.00,0.00,0.00,0.00,0.00,0.00,0.00,0.00,0.00,0.00,0.00,0.00,0.00,694.30,702.65,707.08,709.28,712.38,713.30,713.62,712.14,712.21,713.90,715.08,715.56,713.04,711.28,709.89,708.53,706.73,707.58,707.56,710.62,709.44,711.59,709.41,709.15,707.09,707.28,708.33,708.99,708.99,707.07,705.26,703.48,702.49,703.65,704.06,703.52,701.67,700.21,698.85,698.59,698.66,698.66,698.72,697.27,693.64,690.29,689.48,688.86,686.62,684.69,685.68,682.97,679.57,674.12,670.96,668.23,665.50,663.57,661.85,659.24,655.20,650.31,649.82,649.39,647.54,642.89,639.33,636.99,634.79,631.75,629.40,628.34,628.41,626.62,626.11,624.21,625.94,626.42,629.03,628.73,629.06,630.54,633.69,637.00,638.55,639.50,640.66,644.54,649.04,654.79,659.06,666.31,671.70,677.29,681.05,684.47,685.40,683.73,683.25,680.55,681.10,679.15,678.88,677.71,679.23,680.27,678.56,676.43,674.27,672.39,669.62,667.80,667.28,666.76,666.04,664.63,662.50,659.75,658.93,658.28,660.27,658.22,656.69,654.86,655.09,655.86,656.50,658.36,664.31,672.37,682.97,689.38,693.82,695.17,695.96,694.44,692.61,691.12,690.21,0.00,690.67,691.79,689.14,689.77,689.07,690.75,690.24,691.00,689.65,690.11,688.97,688.94,687.33,686.52,686.24,687.11,687.98,688.44,688.32,688.34,689.24,690.17,689.69,688.83,687.89,687.56,687.92,687.07,687.85,686.36,688.33,685.51,686.51,684.24,684.44,681.80,681.95,681.15,679.65,678.37,678.18,677.10,675.64,675.26,674.88,674.35,672.74,672.68,672.24,669.53,668.26,666.78,668.70,668.64,669.53,670.18,672.23,672.03,671.49,668.14,667.48,666.31,666.57,665.80,665.92,666.90,666.20,664.64,661.99,660.69,659.84,657.41,656.95,655.39,654.75,650.90,648.37,645.91,644.92,645.08,643.69,642.96,642.39,642.77,642.52,640.56,638.98,637.31,637.68,636.76,634.21,628.91,624.46,618.37,613.43,610.98,609.78,609.45,610.11,609.59,609.51,608.07,607.96,607.17,607.67,608.15,607.17,604.09,601.36,601.14,601.74,600.38,597.24,592.61,590.30,588.56,590.38,590.27,589.58,586.48,582.63,580.37,578.48,580.62,583.59,587.08,591.23,592.16,592.76,590.52,585.47,576.91,560.46,534.65,0.00,0.00,0.00,0.00,0.00,0.00,0.00,0.00,0.00,0.00,0.00,0.00,0.00,0.00,0.00,0.00,0.00,0.00,0.00,0.00,0.00,0.00,0.00,0.00,0.00,0.00,0.00,0.00,0.00,0.00,0.00,0.00,0.00,0.00,0.00,0.00,0.00,0.00,0.00,0.00,0.00,0.00,0.00,0.00,0.00,0.00,0.00,0.00
0.00,0.00,0.00,0.00,0.00,0.00,0.00,0.00,0.00,0.00,0.00,0.00,0.00,0.00,0.00,0.00,0.00,0.00,0.00,0.00,0.00,0.00,0.00,0.00,0.00,0.00,0.00,1588.71,1608.94,1615.53,1616.41,1619.12,1622.34,1626.41,1626.76,1628.44,1628.54,1631.03,1631.54,1631.50,1633.22,1637.35,1639.35,1639.66,1638.42,1639.94,1638.49,1638.08,1635.97,1633.88,1635.00,1635.04,1635.19,1634.23,1636.68,1638.44,1636.77,1633.74,1633.58,1635.01,1637.24,1635.57,1636.12,1636.42,1638.55,1637.13,1636.43,1635.30,1636.22,1636.88,1638.21,1639.08,1640.57,1640.99,1640.53,1640.80,1642.63,1643.23,1642.99,1642.74,1641.99,1640.89,1640.27,1642.39,1643.98,1644.63,1644.79,1645.06,1645.76,1645.52,1646.65,1647.17,1646.54,1644.92,1645.24,1646.46,1647.08,1647.59,1650.40,1656.94,0.00,0.00,0.00,1312.15,1312.96,1327.48,1332.94,1328.17,0.00,1613.81,1637.80,1648.62,1648.95,1646.18,1645.37,1645.97,1644.93,0.00,0.00,0.00,0.00,0.00,0.00,0.00,0.00,0.00,0.00,0.00,0.00,0.00,0.00,0.00,0.00,0.00,0.00,0.00,0.00,0.00,0.00,0.00,0.00,0.00,0.00,0.00,0.00,0.00,0.00,0.00,0.00,0.00,0.00,0.00,0.00,0.00,0.00,0.00,0.00,0.00,0.00,0.00,0.00,0.00,0.00,0.00,0.00,0.00,0.00,0.00,0.00,0.00,0.00,676.60,695.26,705.66,709.50,711.32,710.46,711.97,712.57,714.42,712.37,711.37,712.05,712.96,713.91,711.22,711.18,710.16,709.77,707.88,708.40,709.05,711.72,710.97,712.49,710.80,711.36,710.15,710.10,710.25,710.26,709.37,708.17,706.44,706.81,704.36,704.60,703.19,704.64,703.96,703.70,701.94,701.92,700.12,699.46,698.03,697.84,693.58,691.88,690.03,690.31,687.45,686.30,686.74,683.10,679.35,674.33,671.60,669.43,667.20,665.26,662.51,659.11,653.01,648.55,646.73,647.77,645.63,642.67,638.58,636.10,633.90,631.56,628.75,628.44,628.25,626.21,625.93,624.83,627.54,627.52,629.98,630.10,628.85,629.01,630.92,635.30,636.51,638.36,638.92,643.05,646.47,652.77,656.15,662.98,666.83,673.72,677.89,682.36,682.89,682.58,682.21,680.46,679.23,677.94,678.02,677.58,677.80,678.33,677.44,676.65,675.05,673.54,670.57,669.08,667.83,668.23,667.45,667.20,665.72,662.95,661.34,659.62,660.50,658.62,656.34,654.80,653.15,653.78,652.04,652.01,652.95,658.13,667.77,679.28,688.53,693.22,694.91,694.56,693.82,693.40,692.48,693.40,692.52,693.73,0.00,691.87,690.56,691.49,691.39,692.50,691.54,692.16,690.87,691.24,690.28,689.92,690.06,690.53,689.46,688.90,687.98,689.40,689.67,691.10,690.44,689.54,688.33,687.87,688.34,687.19,687.14,686.36,687.36,686.21,684.60,682.65,680.78,678.80,677.97,677.85,677.22,676.46,676.63,676.17,676.03,675.01,675.17,673.76,672.37,671.57,671.32,669.96,669.54,669.04,670.79,669.73,670.59,670.14,672.51,670.73,669.22,665.85,665.04,664.82,664.59,666.09,666.07,666.77,664.29,661.55,658.62,657.09,655.83,654.35,653.15,653.40,651.56,648.24,645.07,643.97,643.76,643.87,641.83,641.92,641.96,642.31,640.73,639.01,639.22,637.94,636.18,632.07,627.40,621.05,615.37,610.60,607.25,607.04,606.94,607.98,609.56,609.73,609.68,607.84,608.25,607.28,607.28,607.05,606.51,604.40,601.68,601.64,601.24,599.80,596.54,593.79,591.23,589.53,589.86,589.82,588.47,586.03,583.68,583.26,582.15,583.48,585.99,588.14,592.50,592.75,592.97,589.29,583.25,571.79,548.28,508.22,0.00,0.00,0.00,0.00,0.00,0.00,0.00,0.00,0.00,0.00,0.00,0.00,0.00,0.00,0.00,0.00,0.00,0.00,0.00,0.00,0.00,0.00,0.00,0.00,0.00,0.00,0.00,0.00,0.00,0.00,0.00,0.00,0.00,0.00,0.00,0.00,0.00,0.00,0.00,0.00,0.00,0.00,0.00,0.00,0.00,0.00,0.00,0.00
0.00,0.00,0.00,0.00,0.00,0.00,0.00,0.00,0.00,0.00,0.00,0.00,0.00,0.00,0.00,0.00,0.00,0.00,0.00,0.00,0.00,0.00,0.00,0.00,0.00,0.00,0.00,0.00,1603.34,1613.03,1613.87,1616.09,1618.61,1622.82,1624.89,1626.77,1627.35,1627.56,1627.98,1629.10,1631.72,1634.44,1634.56,1636.26,1635.90,1636.76,1635.33,1635.45,1633.81,1632.01,1632.14,1633.80,1634.32,1633.28,1634.09,1634.80,1632.31,1630.29,1629.88,1632.55,1634.41,1634.45,1634.40,1634.63,1634.84,1634.55,1633.87,1634.56,1634.09,1634.61,1634.64,1636.14,1637.35,1638.02,1637.55,1637.36,1639.09,1640.01,1639.94,1639.93,1639.78,1640.95,1640.42,1642.06,1641.19,1641.81,1641.52,1642.20,1642.76,1643.28,1644.53,1645.34,1644.22,1643.38,1643.72,1645.15,1646.86,1649.22,1653.90,1660.47,0.00,0.00,0.00,0.00,1301.83,1319.70,1329.39,1315.64,0.00,1602.92,1637.47,1648.44,1648.33,1646.76,1646.03,1646.39,1644.85,0.00,0.00,0.00,0.00,0.00,0.00,0.00,0.00,0.00,0.00,0.00,0.00,0.00,0.00,0.00,0.00,0.00,0.00,0.00,0.00,0.00,0.00,0.00,0.00,0.00,0.00,0.00,0.00,0.00,0.00,0.00,0.00,0.00,0.00,0.00,0.00,0.00,0.00,0.00,0.00,0.00,0.00,0.00,0.00,0.00,0.00,0.00,0.00,0.00,0.00,0.00,0.00,0.00,675.91,695.80,704.72,709.89,711.76,713.17,711.98,712.13,711.33,711.90,708.99,707.80,708.72,710.67,711.49,709.01,708.74,708.16,707.59,705.52,706.17,707.74,709.96,709.67,710.46,709.45,709.55,708.27,707.36,707.18,707.39,707.56,707.06,705.88,705.86,704.35,702.47,701.63,701.30,702.53,701.08,699.25,698.08,697.69,697.42,696.83,695.39,693.44,691.14,691.05,688.91,686.16,682.84,682.80,679.78,676.52,674.32,671.67,668.32,665.00,662.65,661.11,656.23,651.80,646.76,644.64,643.01,640.63,638.13,636.05,634.58,632.57,628.76,625.73,624.45,625.01,623.62,622.96,621.64,622.93,622.15,624.21,624.44,625.91,626.26,628.46,631.44,633.27,635.14,636.60,640.35,642.86,646.38,649.13,655.01,660.46,667.88,671.98,676.48,677.05,677.22,678.18,677.57,677.84,676.40,676.15,674.74,674.47,673.94,673.42,671.80,671.33,670.32,669.19,667.22,666.46,665.62,664.90,663.65,662.81,660.39,659.04,656.44,656.88,655.02,654.25,653.33,651.80,650.82,648.76,649.28,649.99,652.55,656.48,663.97,673.08,680.07,686.06,689.49,693.05,692.78,691.68,693.25,693.34,693.78,691.28,690.54,690.34,691.10,691.52,690.77,688.71,687.55,687.18,687.66,687.46,686.70,687.07,687.89,688.14,687.98,687.12,687.61,687.29,686.70,685.53,683.64,684.72,683.78,683.70,681.35,682.23,682.35,683.14,681.72,679.16,677.56,675.71,674.73,672.53,671.97,671.32,671.39,672.27,672.37,672.36,670.67,670.56,669.46,667.96,667.16,666.24,666.06,666.15,666.15,668.33,666.86,667.34,665.66,667.46,666.00,665.00,663.41,662.43,661.17,659.73,662.09,663.09,663.20,660.15,657.45,654.48,651.74,650.20,648.37,647.28,647.32,646.88,644.12,640.76,638.91,638.52,637.97,637.10,638.26,639.44,639.99,638.09,636.02,636.48,635.74,633.51,626.01,619.11,612.36,608.12,604.93,602.91,602.34,603.45,604.82,606.40,605.62,606.10,604.39,605.66,604.53,605.41,604.16,603.69,600.78,599.31,599.12,599.32,597.28,593.44,591.24,589.27,587.68,585.72,584.21,584.09,582.70,582.60,582.97,583.75,585.03,587.02,587.90,589.91,588.62,587.77,584.05,578.20,563.23,534.22,0.00,0.00,0.00,0.00,0.00,0.00,0.00,0.00,0.00,0.00,0.00,0.00,0.00,0.00,0.00,0.00,0.00,0.00,0.00,0.00,0.00,0.00,0.00,0.00,0.00,0.00,0.00,0.00,0.00,0.00,0.00,0.00,0.00,0.00,0.00,0.00,0.00,0.00,0.00,0.00,0.00,0.00,0.00,0.00,0.00,0.00,0.00,0.00,0.00
0.00,0.00,0.00,0.00,0.00,0.00,0.00,0.00,0.00,0.00,0.00,0.00,0.00,0.00,0.00,0.00,0.00,0.00,0.00,0.00,0.00,0.00,0.00,0.00,0.00,0.00,0.00,0.00,1598.59,1612.07,1613.16,1614.27,1616.44,1620.39,1622.56,1624.45,1624.35,1625.71,1628.11,1631.54,1633.73,1633.93,1634.02,1634.08,1635.53,1636.18,1637.68,1637.60,1636.92,1634.68,1634.33,1634.18,1634.97,1633.61,1633.65,1633.10,1632.98,1631.96,1631.95,1632.34,1634.41,1634.06,1634.22,1633.74,1634.44,1634.64,1634.56,1635.08,1635.26,1635.81,1636.33,1635.97,1636.96,1637.10,1638.21,1637.52,1639.12,1639.71,1640.40,1640.49,1640.51,1641.27,1640.67,1642.06,1641.84,1642.66,1641.81,1642.45,1643.13,1644.14,1645.63,1646.21,1646.16,1644.77,1645.75,1646.93,1648.19,1648.90,1651.38,1659.83,0.00,0.00,0.00,0.00,1296.61,1316.25,0.00,1321.15,0.00,0.00,1637.95,1648.12,1650.83,1650.42,1650.56,1649.32,1647.64,1646.93,0.00,0.00,0.00,0.00,0.00,0.00,0.00,0.00,0.00,0.00,0.00,0.00,0.00,0.00,0.00,0.00,0.00,0.00,0.00,0.00,0.00,0.00,0.00,0.00,0.00,0.00,0.00,0.00,0.00,0.00,0.00,0.00,0.00,0.00,0.00,0.00,0.00,0.00,0.00,0.00,0.00,0.00,0.00,0.00,0.00,0.00,0.00,0.00,0.00,0.00,0.00,681.62,697.31,705.46,709.17,711.84,712.89,714.91,714.42,712.31,710.73,709.86,709.05,707.75,709.47,709.92,710.85,708.55,708.98,708.60,708.54,706.53,707.63,708.60,711.84,710.75,711.37,709.60,710.65,709.72,709.47,708.63,709.33,707.80,707.99,706.56,708.47,706.11,704.86,702.82,703.12,703.63,703.19,700.95,698.83,697.31,696.87,695.43,693.60,691.88,690.98,690.26,687.75,685.13,682.74,683.28,682.13,679.39,676.54,672.29,667.78,665.01,661.34,659.35,655.20,652.84,649.27,643.82,641.40,638.82,638.77,634.60,632.74,630.85,630.28,627.04,625.54,624.45,623.90,622.63,620.74,620.04,619.66,621.28,622.75,624.10,624.35,625.30,628.47,631.22,635.10,637.51,641.75,643.21,644.13,644.80,650.66,657.04,664.83,667.12,672.15,674.52,676.82,677.77,678.17,678.40,677.88,676.39,675.28,674.09,674.47,673.92,673.26,671.95,671.04,669.85,668.62,666.83,666.00,665.57,665.29,664.18,661.86,660.45,658.20,657.61,656.44,655.57,654.79,651.81,650.97,648.10,649.92,650.15,653.39,653.64,657.21,662.60,669.45,678.17,684.65,691.25,692.27,693.59,695.44,696.98,696.13,695.16,694.98,695.46,695.06,694.75,693.47,690.79,688.62,688.90,690.43,690.64,689.75,689.34,689.62,689.20,688.87,688.17,688.21,686.43,685.13,684.12,682.36,681.38,680.11,681.14,680.46,679.42,678.54,678.42,678.53,676.78,675.88,674.80,674.03,672.31,671.23,671.07,670.47,671.11,670.30,670.71,670.07,669.15,667.46,664.92,665.37,665.14,666.09,665.78,666.43,667.56,666.18,665.67,663.93,665.09,663.56,663.04,662.00,659.59,658.94,657.50,661.21,660.45,659.82,657.29,655.74,653.28,649.58,647.57,646.14,644.90,644.50,643.98,641.28,637.42,635.18,636.01,637.23,637.10,638.06,638.10,637.99,636.35,634.84,635.58,633.06,629.11,621.45,614.64,609.56,605.80,602.93,599.35,598.33,599.92,603.31,605.44,606.69,606.86,605.79,605.64,604.67,604.32,603.20,602.68,602.73,600.90,600.25,598.43,597.10,593.73,592.55,591.05,590.00,585.71,582.98,582.83,582.62,583.98,584.07,585.53,586.45,588.34,588.81,589.41,586.16,582.62,576.96,569.42,551.43,513.32,0.00,0.00,0.00,0.00,0.00,0.00,0.00,0.00,0.00,0.00,0.00,0.00,0.00,0.00,0.00,0.00,0.00,0.00,0.00,0.00,0.00,0.00,0.00,0.00,0.00,0.00,0.00,0.00,0.00,0.00,0.00,0.00,0.00,0.00,0.00,0.00,0.00,0.00,0.00,0.00,0.00,0.00,0.00,0.00,0.00,0.00,0.00,0.00,0.00
